nan nan nan nan nan nan nan nan nan nan nan nan nan nan 2.642739746090000153e+03 2.644515136720000100e+03 2.643770019529999900e+03 2.639593750000000000e+03 2.636172119140000177e+03 2.635775390629999947e+03 2.635294677729999876e+03 2.633514404300000024e+03 2.630661621090000153e+03 2.628520263670000077e+03 2.627487548829999923e+03 2.626954345699999976e+03 2.626501708979999876e+03 2.623042480470000100e+03 2.617955810550000024e+03 2.611502929690000201e+03 2.602526123050000024e+03 2.594779541020000124e+03 2.582853271479999876e+03 2.574762939449999976e+03 2.565692626949999976e+03 2.559509033199999976e+03 2.554778564449999976e+03 2.549460205079999923e+03 2.544318359379999947e+03 2.539990478520000124e+03 2.536247070309999799e+03 2.533370849609999823e+03 2.531890136720000100e+03 2.528376220699999976e+03 2.523569091800000024e+03 2.516747802729999876e+03 2.509642822270000124e+03 2.504187255859999823e+03 2.500058349609999823e+03 2.496997558590000153e+03 2.493104492190000201e+03 2.488726562500000000e+03 2.484671875000000000e+03 2.480082763670000077e+03 2.476161132809999799e+03 2.472148193359999823e+03 2.470006347659999847e+03 2.467863281250000000e+03 2.465076660159999847e+03 2.461698242190000201e+03 2.457894042970000100e+03 2.453487548829999923e+03 2.447685058590000153e+03 2.443461914059999799e+03 2.437836181640000177e+03 2.433738281250000000e+03 2.429488525390000177e+03 2.426924072270000124e+03 2.423336914059999799e+03 2.421123046879999947e+03 2.420563476559999799e+03 2.419781982420000077e+03 2.416516113279999900e+03 2.412546386720000100e+03 2.407377197270000124e+03 2.400424560550000024e+03 2.394092773440000201e+03 2.386006347659999847e+03 2.377639404300000024e+03 2.368211425779999900e+03 2.358483886720000100e+03 2.352712402340000153e+03 2.349303222659999847e+03 2.345324218750000000e+03 2.342650390629999947e+03 2.338347167970000100e+03 2.331660400390000177e+03 2.320720458979999876e+03 2.312299316409999847e+03 2.306144042970000100e+03 2.303533203129999947e+03 2.300879150390000177e+03 2.296389404300000024e+03 2.291861572270000124e+03 2.285367675779999900e+03 2.278707763670000077e+03 2.282472656250000000e+03 2.294470214840000153e+03 2.309443359379999947e+03 2.369248535159999847e+03 2.407425537109999823e+03 2.457752441409999847e+03 2.499339843750000000e+03 nan nan nan nan nan 2.726204101559999799e+03 2.574105712890000177e+03 2.539401611329999923e+03 nan nan 2.391628417970000100e+03 2.326016845699999976e+03 2.315105957029999900e+03 2.289486572270000124e+03 2.296075439449999976e+03 2.295962890629999947e+03 2.286566650390000177e+03 nan nan nan nan nan nan nan nan nan nan nan nan nan nan nan nan nan nan nan nan nan nan nan nan nan nan nan nan nan nan nan nan nan nan nan nan nan nan nan nan nan nan 1.587323364260000062e+03 1.621599853519999897e+03 1.636653686520000065e+03 1.639370849610000050e+03 1.636657226560000026e+03 1.635481323239999938e+03 1.633809326170000077e+03 1.629950439449999976e+03 1.631568847660000074e+03 1.638006713870000112e+03 1.636800415039999962e+03 1.635453979489999938e+03 1.634831542970000100e+03 1.631955810550000024e+03 1.629168701170000077e+03 1.627286376949999976e+03 1.626383789060000026e+03 1.626603393549999964e+03 1.628440551760000062e+03 1.627331542970000100e+03 1.624369140629999947e+03 1.622599853519999897e+03 1.620114257810000026e+03 1.616562744139999950e+03 1.614105712889999950e+03 1.611860473629999888e+03 1.607745239260000062e+03 1.604664062500000000e+03 1.600374023439999974e+03 1.594949340820000089e+03 1.588802246089999926e+03 1.585140625000000000e+03 1.581589355470000100e+03 1.581296264650000012e+03 1.578642333980000103e+03 1.577275024410000015e+03 1.573912719729999935e+03 1.570130004879999888e+03 1.567568237299999964e+03 1.561725952150000012e+03 1.556401245120000112e+03 1.549949584960000038e+03 1.543940185550000024e+03 1.537865112299999964e+03 1.534163085939999974e+03 1.522726318360000050e+03 nan nan nan nan nan nan nan nan nan nan nan nan nan nan nan nan nan nan nan nan nan nan nan nan nan nan nan nan nan nan nan nan nan nan nan nan nan nan nan nan nan nan nan 1.151197998050000024e+03 1.171537597660000074e+03 1.170548706049999964e+03
nan nan nan nan nan nan nan nan nan nan nan nan nan nan 2.641594482420000077e+03 2.641020507809999799e+03 2.640572998050000024e+03 2.639557861329999923e+03 2.636006835940000201e+03 2.628468994140000177e+03 2.626065917970000100e+03 2.624431640629999947e+03 2.624711669920000077e+03 2.624397216800000024e+03 2.623571044920000077e+03 2.622543701170000077e+03 2.621456054690000201e+03 2.618204833979999876e+03 2.614337646479999876e+03 2.608581298829999923e+03 2.602670166020000124e+03 2.595790039059999799e+03 2.585106445309999799e+03 2.579161865229999876e+03 2.571834228520000124e+03 2.565609863279999900e+03 2.559906005859999823e+03 2.554252197270000124e+03 2.547456542970000100e+03 2.543997314449999976e+03 2.540551269529999900e+03 2.537676513670000077e+03 2.534239257809999799e+03 2.530381103520000124e+03 2.527254638670000077e+03 2.522057373050000024e+03 2.514089355470000100e+03 2.506438476559999799e+03 2.500022705079999923e+03 2.497441650390000177e+03 2.494293457029999900e+03 2.491118652340000153e+03 2.487193359379999947e+03 2.482415283199999976e+03 2.477973144529999900e+03 2.474248779300000024e+03 2.472123046879999947e+03 2.470432861329999923e+03 2.468938964840000153e+03 2.465955078129999947e+03 2.461090332029999900e+03 2.455878417970000100e+03 2.450010742190000201e+03 2.444770996090000153e+03 2.439179687500000000e+03 2.435826171879999947e+03 2.433322753909999847e+03 2.429656738279999900e+03 2.425406738279999900e+03 2.423578369140000177e+03 2.423101318359999823e+03 2.424729003909999847e+03 2.423671386720000100e+03 2.415216796879999947e+03 2.407905761720000100e+03 2.401324707029999900e+03 2.395475830079999923e+03 2.387941894529999900e+03 2.375362548829999923e+03 2.360835205079999923e+03 2.348298095699999976e+03 2.344349365229999876e+03 2.340593505859999823e+03 2.340786132809999799e+03 2.338264160159999847e+03 2.335115478520000124e+03 2.330028808590000153e+03 2.322692626949999976e+03 2.315054931640000177e+03 2.305871337890000177e+03 2.302993408199999976e+03 2.302217529300000024e+03 2.298266357420000077e+03 2.290408691409999847e+03 2.285476562500000000e+03 2.283075195309999799e+03 2.279210449220000100e+03 2.282385498050000024e+03 2.289606933590000153e+03 2.309181396479999876e+03 2.369802490229999876e+03 nan 2.491434570309999799e+03 2.625043457029999900e+03 nan nan nan nan nan 2.542294433590000153e+03 2.511956298829999923e+03 2.490661621090000153e+03 2.443417236329999923e+03 2.409449218750000000e+03 2.354826660159999847e+03 2.308445312500000000e+03 2.293114013670000077e+03 2.254907958979999876e+03 2.287998779300000024e+03 2.275774169920000077e+03 nan nan nan nan nan nan nan nan nan nan nan nan nan nan nan nan nan nan nan nan nan nan nan nan nan nan nan nan nan nan nan nan nan nan nan nan nan nan nan nan 1.626571289060000026e+03 1.624357543950000036e+03 1.626790283199999976e+03 1.638339477539999962e+03 1.643955932620000112e+03 1.647444091800000024e+03 1.648750488279999900e+03 1.644017456049999964e+03 1.641315795900000012e+03 1.642488281250000000e+03 1.643999023439999974e+03 1.646075317379999888e+03 1.646003051760000062e+03 1.646086303710000038e+03 1.646067504879999888e+03 1.643718261720000100e+03 1.637489135739999938e+03 1.632801757810000026e+03 1.632580322269999897e+03 1.631939697269999897e+03 1.632584228519999897e+03 1.630018798829999923e+03 1.629521972660000074e+03 1.625895751949999976e+03 1.623049804689999974e+03 1.618376831049999964e+03 1.614994262700000036e+03 1.610927734379999947e+03 1.606864501949999976e+03 1.602260375979999935e+03 1.598755859379999947e+03 1.594665649410000015e+03 1.589318603519999897e+03 1.585721557620000112e+03 1.583984497070000089e+03 1.580550781250000000e+03 1.578607788089999985e+03 1.577680053710000038e+03 1.574925781250000000e+03 1.571318237299999964e+03 1.569334594729999935e+03 1.564944946289999962e+03 1.559519653320000089e+03 1.555974121089999926e+03 1.553157348629999888e+03 1.546941284179999911e+03 1.540165527339999926e+03 1.535454223629999888e+03 1.530700805660000015e+03 1.517659545900000012e+03 1.506003662110000050e+03 1.498741333010000062e+03 nan nan nan nan nan nan nan nan nan nan nan nan nan nan nan nan nan nan nan nan nan nan nan nan nan nan nan nan nan nan nan nan nan nan nan nan nan nan 1.170762084960000038e+03 1.180819702150000012e+03 1.179418457029999900e+03 1.177903442379999888e+03
nan nan nan nan nan nan nan nan nan nan nan nan nan nan 2.643418701170000077e+03 2.641912353520000124e+03 2.640385498050000024e+03 2.639157226559999799e+03 2.636091308590000153e+03 2.632385253909999847e+03 2.626457519529999900e+03 2.621110595699999976e+03 2.618180664059999799e+03 2.617349365229999876e+03 2.617935791020000124e+03 2.618091552729999876e+03 2.616230224609999823e+03 2.613827636720000100e+03 2.610776123050000024e+03 2.605913085940000201e+03 2.600666992190000201e+03 2.593877441409999847e+03 2.587195800779999900e+03 2.581604248050000024e+03 2.576378662109999823e+03 2.571652587890000177e+03 2.566501708979999876e+03 2.561108642579999923e+03 2.555055908199999976e+03 2.549011962890000177e+03 2.545490966800000024e+03 2.542314697270000124e+03 2.538588623050000024e+03 2.534626464840000153e+03 2.532636474609999823e+03 2.528694824220000100e+03 2.523123779300000024e+03 2.515915039059999799e+03 2.509728027340000153e+03 2.505316894529999900e+03 2.502130126949999976e+03 2.497429443359999823e+03 2.492510253909999847e+03 2.486449707029999900e+03 2.480469482420000077e+03 2.477062988279999900e+03 2.475597656250000000e+03 2.474868652340000153e+03 2.473524169920000077e+03 2.469930908199999976e+03 2.463232421879999947e+03 2.458212402340000153e+03 2.451600830079999923e+03 2.447673828129999947e+03 2.443629150390000177e+03 2.440046142579999923e+03 2.435492431640000177e+03 2.430729492190000201e+03 2.426524414059999799e+03 2.426508300779999900e+03 2.429437500000000000e+03 2.429655273440000201e+03 2.425368652340000153e+03 2.419646972659999847e+03 2.412790283199999976e+03 2.405253906250000000e+03 2.399325439449999976e+03 2.390628906250000000e+03 2.377575927729999876e+03 2.356187744140000177e+03 2.338948242190000201e+03 2.329662109379999947e+03 2.325502197270000124e+03 2.329095703129999947e+03 2.332036865229999876e+03 2.330891357420000077e+03 2.326198974609999823e+03 2.320615478520000124e+03 2.315163085940000201e+03 2.308449707029999900e+03 2.303179443359999823e+03 2.300908203129999947e+03 2.298151367190000201e+03 2.294048583979999876e+03 2.285861816409999847e+03 2.281641113279999900e+03 2.276870117190000201e+03 2.271629150390000177e+03 2.268283691409999847e+03 2.283497070309999799e+03 2.315280273440000201e+03 2.388328613279999900e+03 2.441136718750000000e+03 nan nan nan nan nan nan 2.558757568359999823e+03 2.502218994140000177e+03 2.484839599609999823e+03 2.443878906250000000e+03 2.416416992190000201e+03 2.368093505859999823e+03 2.293605957029999900e+03 2.271195800779999900e+03 2.247751220699999976e+03 2.239020019529999900e+03 2.265832031250000000e+03 nan nan nan nan nan nan nan nan nan nan nan nan nan nan nan nan nan nan nan nan nan nan nan nan nan nan nan nan nan nan nan nan nan nan nan nan nan nan 1.605301635739999938e+03 1.618303100589999985e+03 1.632209594729999935e+03 1.629470825200000036e+03 1.633280273439999974e+03 1.642544799799999964e+03 1.647403808589999926e+03 1.650469970699999976e+03 1.653958129879999888e+03 1.654204101560000026e+03 1.653562622070000089e+03 1.651853271480000103e+03 1.652436645510000062e+03 1.651769042970000100e+03 1.652996337889999950e+03 1.651947753910000074e+03 1.650381103519999897e+03 1.649094726560000026e+03 1.645875732420000077e+03 1.639539428710000038e+03 1.636383422849999988e+03 1.634863403320000089e+03 1.635661132810000026e+03 1.634210205079999923e+03 1.631256591800000024e+03 1.628674072269999897e+03 1.623238525389999950e+03 1.620186889650000012e+03 1.617213623050000024e+03 1.612612915039999962e+03 1.609056396480000103e+03 1.605111694339999985e+03 1.599343750000000000e+03 1.591878540039999962e+03 1.587891357420000077e+03 1.584635009769999897e+03 1.582394409179999911e+03 1.579919433589999926e+03 1.579506347660000074e+03 1.578920898439999974e+03 1.576331420900000012e+03 1.572848388670000077e+03 1.569618041989999938e+03 1.563751708980000103e+03 1.560970825200000036e+03 1.559520751949999976e+03 1.557373535160000074e+03 1.551001220699999976e+03 1.549044799799999964e+03 1.543288574220000100e+03 1.537432128910000074e+03 1.528862426760000062e+03 1.518683837889999950e+03 1.514302490230000103e+03 1.509549560550000024e+03 nan nan nan nan nan nan nan nan nan nan nan nan nan nan nan nan nan nan nan nan nan nan nan nan nan nan nan nan nan nan nan nan nan nan nan nan nan 1.174583862299999964e+03 1.181773437500000000e+03 1.181638061520000065e+03 1.185457275389999950e+03
nan nan nan nan nan nan nan nan nan nan nan nan nan nan 2.644245849609999823e+03 2.643656250000000000e+03 2.640167968750000000e+03 2.637253417970000100e+03 2.634732666020000124e+03 2.631721435550000024e+03 2.628497558590000153e+03 2.624173095699999976e+03 2.619999511720000100e+03 2.616654296879999947e+03 2.615540283199999976e+03 2.613999755859999823e+03 2.613842529300000024e+03 2.610647460940000201e+03 2.606742187500000000e+03 2.602984375000000000e+03 2.597653564449999976e+03 2.593189697270000124e+03 2.587809326170000077e+03 2.583231933590000153e+03 2.578812744140000177e+03 2.574025878909999847e+03 2.569744628909999847e+03 2.565251953129999947e+03 2.560498046879999947e+03 2.554808593750000000e+03 2.550470458979999876e+03 2.547084472659999847e+03 2.543391601559999799e+03 2.540211181640000177e+03 2.537047607420000077e+03 2.534054931640000177e+03 2.529927734379999947e+03 2.524311279300000024e+03 2.517457275390000177e+03 2.512066894529999900e+03 2.507712890629999947e+03 2.502540771479999876e+03 2.496651367190000201e+03 2.490500000000000000e+03 2.485176269529999900e+03 2.482989257809999799e+03 2.481126220699999976e+03 2.479978515629999947e+03 2.476913574220000100e+03 2.471760253909999847e+03 2.466301269529999900e+03 2.461215576170000077e+03 2.456289794920000077e+03 2.451970947270000124e+03 2.445804443359999823e+03 2.440709228520000124e+03 2.436803222659999847e+03 2.433259277340000153e+03 2.429695068359999823e+03 2.428676025390000177e+03 2.429972412109999823e+03 2.431329345699999976e+03 2.429490722659999847e+03 2.427213623050000024e+03 2.422009521479999876e+03 2.409930175779999900e+03 2.399725097659999847e+03 2.391612060550000024e+03 2.381963867190000201e+03 2.358546875000000000e+03 2.331593994140000177e+03 2.318474609379999947e+03 2.315033691409999847e+03 2.319596191409999847e+03 2.323921630859999823e+03 2.324272949220000100e+03 2.321074218750000000e+03 2.317385253909999847e+03 2.313250000000000000e+03 2.309225585940000201e+03 2.304753906250000000e+03 2.301061279300000024e+03 2.297555908199999976e+03 2.293264892579999923e+03 2.289435546879999947e+03 2.283361083979999876e+03 2.274358398440000201e+03 2.267558349609999823e+03 2.263795898440000201e+03 2.258341308590000153e+03 2.264900634770000124e+03 nan nan nan nan nan nan nan nan 2.654321533199999976e+03 2.587821289059999799e+03 2.571233886720000100e+03 2.501613281250000000e+03 nan 2.343011962890000177e+03 2.263448974609999823e+03 2.246197265629999947e+03 2.242561279300000024e+03 2.242849121090000153e+03 2.247250488279999900e+03 nan nan nan nan nan nan nan nan nan nan nan nan nan nan nan nan nan nan nan nan nan nan nan nan nan nan nan nan nan nan nan nan nan nan nan nan nan 1.631959228519999897e+03 1.619557250979999935e+03 1.627020874020000065e+03 1.628648071289999962e+03 1.630081176760000062e+03 1.636262084960000038e+03 1.644723632810000026e+03 1.650073974610000050e+03 1.654280273439999974e+03 1.658606445310000026e+03 1.659999145510000062e+03 1.660474121089999926e+03 1.660447753910000074e+03 1.660438110349999988e+03 1.658506469729999935e+03 1.656472290039999962e+03 1.654141113279999900e+03 1.654825195310000026e+03 1.655619750979999935e+03 1.651380859379999947e+03 1.643964965820000089e+03 1.640510986329999923e+03 1.640106811520000065e+03 1.637724731450000036e+03 1.635502441410000074e+03 1.632912475589999985e+03 1.630365966800000024e+03 1.626225708010000062e+03 1.623328125000000000e+03 1.619720336910000015e+03 1.615129394529999900e+03 1.610864379879999888e+03 1.605097656250000000e+03 1.598077636720000100e+03 1.591395141599999988e+03 1.587469604489999938e+03 1.584413940429999911e+03 1.580024780270000065e+03 1.580258789060000026e+03 1.578747436520000065e+03 1.578867797849999988e+03 1.576951660160000074e+03 1.573832519529999900e+03 1.569587402339999926e+03 1.564854125979999935e+03 1.561324584960000038e+03 1.559400390629999947e+03 1.559035644529999900e+03 1.555522949220000100e+03 1.551310180660000015e+03 1.547297241210000038e+03 1.543407958980000103e+03 1.535327636720000100e+03 1.528529174799999964e+03 1.524084472660000074e+03 1.516738525389999950e+03 1.502445068360000050e+03 nan nan nan nan nan nan nan nan nan nan nan nan nan nan nan nan nan nan nan nan nan nan nan nan nan nan nan nan nan nan nan nan nan nan nan 1.156376220699999976e+03 1.173082275389999950e+03 1.186536743160000015e+03 1.189620483400000012e+03 1.191091064449999976e+03
nan nan nan nan nan nan nan nan nan nan nan nan nan nan 2.645723632809999799e+03 2.646903320309999799e+03 2.643989746090000153e+03 2.639089843750000000e+03 2.634049804690000201e+03 2.629648681640000177e+03 2.626480224609999823e+03 2.623244384770000124e+03 2.620616455079999923e+03 2.618524658199999976e+03 2.616339599609999823e+03 2.612678222659999847e+03 2.610026367190000201e+03 2.606273925779999900e+03 2.602852783199999976e+03 2.598609130859999823e+03 2.594280517579999923e+03 2.590522949220000100e+03 2.586576904300000024e+03 2.583125976559999799e+03 2.578159423829999923e+03 2.574398193359999823e+03 2.570105957029999900e+03 2.565886230470000100e+03 2.561790283199999976e+03 2.558075439449999976e+03 2.553174072270000124e+03 2.550004150390000177e+03 2.546983154300000024e+03 2.544220703129999947e+03 2.540334960940000201e+03 2.536963623050000024e+03 2.532628906250000000e+03 2.526259277340000153e+03 2.519783203129999947e+03 2.514442871090000153e+03 2.509064208979999876e+03 2.504135498050000024e+03 2.498579589840000153e+03 2.493392822270000124e+03 2.489849121090000153e+03 2.488103515629999947e+03 2.485819824220000100e+03 2.483087158199999976e+03 2.478455566409999847e+03 2.473578125000000000e+03 2.469160156250000000e+03 2.465967041020000124e+03 2.460835937500000000e+03 2.452825683590000153e+03 2.445995361329999923e+03 2.444047607420000077e+03 2.441771484379999947e+03 2.436651855470000100e+03 2.430672119140000177e+03 2.429181884770000124e+03 2.431730468750000000e+03 2.432999267579999923e+03 2.435447998050000024e+03 2.434736572270000124e+03 2.430943115229999876e+03 2.420886230470000100e+03 2.402552001949999976e+03 2.390034667970000100e+03 2.390953613279999900e+03 2.359830322270000124e+03 2.332423339840000153e+03 2.315924316409999847e+03 2.310006347659999847e+03 2.312886718750000000e+03 2.316594482420000077e+03 2.317311523440000201e+03 2.314973876949999976e+03 2.312403076170000077e+03 2.310533935550000024e+03 2.306655273440000201e+03 2.304364501949999976e+03 2.301653076170000077e+03 2.297934814449999976e+03 2.294189697270000124e+03 2.289452880859999823e+03 2.283380371090000153e+03 2.277506835940000201e+03 2.270971191409999847e+03 2.266336669920000077e+03 2.258632568359999823e+03 2.250860839840000153e+03 2.246794189449999976e+03 nan nan nan nan 2.494150878909999847e+03 nan nan 2.802989013670000077e+03 2.742510986329999923e+03 2.741505371090000153e+03 2.740430175779999900e+03 nan nan 2.256820556640000177e+03 2.234475830079999923e+03 2.232374267579999923e+03 2.228685546879999947e+03 2.232437011720000100e+03 nan nan nan nan nan nan nan nan nan nan nan nan nan nan nan nan nan nan nan nan nan nan nan nan nan nan nan nan nan nan nan nan nan nan nan nan nan nan 1.613627807620000112e+03 1.609550903320000089e+03 1.617218139650000012e+03 1.628934448239999938e+03 1.641615356450000036e+03 1.650585571289999962e+03 1.654693847660000074e+03 1.659403198239999938e+03 1.662839355470000100e+03 1.664796875000000000e+03 1.664588867189999974e+03 1.664890258789999962e+03 1.664797119139999950e+03 1.663482177730000103e+03 1.660132324220000100e+03 1.658037719729999935e+03 1.657993164060000026e+03 1.657910644529999900e+03 1.655431274410000015e+03 1.651713745120000112e+03 1.646225219729999935e+03 1.643652954099999988e+03 1.639183837889999950e+03 1.637647094729999935e+03 1.634812255860000050e+03 1.631715454099999988e+03 1.629556152339999926e+03 1.626003417970000100e+03 1.621317016599999988e+03 1.618108154300000024e+03 1.613534545900000012e+03 1.607642944339999985e+03 1.599566162110000050e+03 1.593522705079999923e+03 1.588510009769999897e+03 1.585125610349999988e+03 1.581910156250000000e+03 1.580591918950000036e+03 1.579772827150000012e+03 1.578174316410000074e+03 1.576446166989999938e+03 1.573750000000000000e+03 1.569240112299999964e+03 1.565110229489999938e+03 1.561953857420000077e+03 1.558634277339999926e+03 1.557412109379999947e+03 1.555724853519999897e+03 1.553558593750000000e+03 1.549803100589999985e+03 1.544917846679999911e+03 1.539465087889999950e+03 1.536311279300000024e+03 1.530241821289999962e+03 1.524408813479999935e+03 1.516721069339999985e+03 nan nan nan nan nan nan nan nan nan nan nan nan nan nan nan nan nan nan nan nan nan nan nan nan nan nan nan nan nan nan nan nan nan nan nan nan 1.184607421879999947e+03 1.193717895510000062e+03 1.196303466800000024e+03 1.196457763670000077e+03
nan nan nan nan nan nan nan nan nan nan nan nan nan nan 2.646866455079999923e+03 2.646968261720000100e+03 2.645340332029999900e+03 2.642003173829999923e+03 2.636070556640000177e+03 2.631645263670000077e+03 2.625660888670000077e+03 2.622033447270000124e+03 2.619106689449999976e+03 2.616620117190000201e+03 2.615499267579999923e+03 2.611792480470000100e+03 2.607918212890000177e+03 2.603538330079999923e+03 2.601117919920000077e+03 2.597943115229999876e+03 2.593686523440000201e+03 2.589741210940000201e+03 2.587735351559999799e+03 2.582954345699999976e+03 2.578975097659999847e+03 2.573998046879999947e+03 2.570189208979999876e+03 2.566284423829999923e+03 2.562506835940000201e+03 2.559098632809999799e+03 2.556156738279999900e+03 2.551990966800000024e+03 2.549689208979999876e+03 2.545425292970000100e+03 2.541457763670000077e+03 2.536331054690000201e+03 2.529818847659999847e+03 2.523004638670000077e+03 2.518163818359999823e+03 2.513922607420000077e+03 2.509813720699999976e+03 2.504560302729999876e+03 2.499605224609999823e+03 2.495690185550000024e+03 2.493383300779999900e+03 2.490985839840000153e+03 2.487969726559999799e+03 2.484761718750000000e+03 2.480504638670000077e+03 2.476428466800000024e+03 2.471751220699999976e+03 2.467372314449999976e+03 2.462799072270000124e+03 2.457091552729999876e+03 2.451566894529999900e+03 2.449605712890000177e+03 2.445162597659999847e+03 2.441098388670000077e+03 2.435371582029999900e+03 2.432474853520000124e+03 2.432834472659999847e+03 2.433471679690000201e+03 2.440887207029999900e+03 2.439084716800000024e+03 2.442047607420000077e+03 2.450992675779999900e+03 2.438597900390000177e+03 2.424339843750000000e+03 2.417279541020000124e+03 2.376797607420000077e+03 2.342958496090000153e+03 2.322547363279999900e+03 2.309834716800000024e+03 2.307582275390000177e+03 2.309951171879999947e+03 2.311740966800000024e+03 2.310450195309999799e+03 2.307969482420000077e+03 2.306141113279999900e+03 2.303898681640000177e+03 2.301771484379999947e+03 2.299518798829999923e+03 2.297340576170000077e+03 2.293495605470000100e+03 2.289850341800000024e+03 2.283431640629999947e+03 2.277200683590000153e+03 2.272414062500000000e+03 2.267215087890000177e+03 2.258578857420000077e+03 2.251196777340000153e+03 2.241458251949999976e+03 2.235819824220000100e+03 nan nan 2.409869873050000024e+03 2.494975830079999923e+03 nan nan nan 2.940764160159999847e+03 nan nan nan nan nan 2.213412353520000124e+03 2.200718261720000100e+03 2.198424804690000201e+03 2.210835693359999823e+03 nan nan nan nan nan nan nan nan nan nan nan nan 1.838549194339999985e+03 nan 1.859781982420000077e+03 nan nan nan nan nan nan nan nan nan nan nan nan 1.779160766599999988e+03 1.771462158199999976e+03 1.762421508789999962e+03 1.766693725589999985e+03 1.774266113279999900e+03 nan nan nan nan nan nan nan 1.620495239260000062e+03 1.615884765629999947e+03 1.632503173829999923e+03 1.646717773439999974e+03 1.655809570310000026e+03 1.659110107420000077e+03 1.662725097660000074e+03 1.665196533199999976e+03 1.665543945310000026e+03 1.666912841800000024e+03 1.666653320310000026e+03 1.664684936520000065e+03 1.663616333010000062e+03 1.661137084960000038e+03 1.660457641599999988e+03 1.659787597660000074e+03 1.658725585939999974e+03 1.656794067379999888e+03 1.654141845699999976e+03 1.650398925779999900e+03 1.646668945310000026e+03 1.645043945310000026e+03 1.642925903320000089e+03 1.638842285160000074e+03 1.635629150389999950e+03 1.632294677730000103e+03 1.630117309570000089e+03 1.626077880860000050e+03 1.622274291989999938e+03 1.616668945310000026e+03 1.611855590820000089e+03 1.604785034179999911e+03 1.596964599610000050e+03 1.591885986329999923e+03 1.588077026370000112e+03 1.585182128910000074e+03 1.583998168950000036e+03 1.583539672849999988e+03 1.581966796879999947e+03 1.578021240230000103e+03 1.574734375000000000e+03 1.569531127929999911e+03 1.565603637700000036e+03 1.562428955079999923e+03 1.559227294920000077e+03 1.556385498050000024e+03 1.554760375979999935e+03 1.552251342770000065e+03 1.549135986329999923e+03 1.546248046879999947e+03 1.543177368160000015e+03 1.538966064449999976e+03 1.534608886720000100e+03 1.527776489260000062e+03 1.522890747070000089e+03 1.512908813479999935e+03 nan nan nan nan nan nan nan nan nan nan nan nan nan nan nan nan nan nan nan nan nan nan nan nan nan nan nan nan nan nan nan nan nan nan 1.180120117189999974e+03 1.185453735349999988e+03 1.194547119139999950e+03 1.197757934570000089e+03 1.198889160160000074e+03
nan nan nan nan nan nan nan nan nan nan nan nan nan nan 2.648337646479999876e+03 2.645758789059999799e+03 2.643987060550000024e+03 2.640433837890000177e+03 2.636526123050000024e+03 2.630754150390000177e+03 2.624666992190000201e+03 2.620342773440000201e+03 2.617409912109999823e+03 2.614843505859999823e+03 2.612189208979999876e+03 2.609937011720000100e+03 2.606796142579999923e+03 2.603964599609999823e+03 2.600649902340000153e+03 2.596798095699999976e+03 2.592935058590000153e+03 2.590637451170000077e+03 2.587634277340000153e+03 2.584259277340000153e+03 2.579782714840000153e+03 2.575670166020000124e+03 2.570170898440000201e+03 2.566405517579999923e+03 2.562451660159999847e+03 2.559725097659999847e+03 2.555869140629999947e+03 2.553045654300000024e+03 2.549385009770000124e+03 2.544562255859999823e+03 2.539159179690000201e+03 2.533890625000000000e+03 2.527088134770000124e+03 2.522030761720000100e+03 2.518076660159999847e+03 2.514144775390000177e+03 2.509965576170000077e+03 2.505584716800000024e+03 2.500822265629999947e+03 2.497635009770000124e+03 2.495294921879999947e+03 2.492861572270000124e+03 2.491439941409999847e+03 2.488406738279999900e+03 2.484250000000000000e+03 2.479586914059999799e+03 2.473105957029999900e+03 2.468887939449999976e+03 2.467057128909999847e+03 2.462732177729999876e+03 2.459246826170000077e+03 2.455042724609999823e+03 2.450743896479999876e+03 2.448402343750000000e+03 2.439777343750000000e+03 2.435180664059999799e+03 2.430833496090000153e+03 2.438848876949999976e+03 2.442520996090000153e+03 2.444739257809999799e+03 2.457936523440000201e+03 2.466367675779999900e+03 2.470892822270000124e+03 2.466117187500000000e+03 2.453318847659999847e+03 2.481237304690000201e+03 2.399258544920000077e+03 2.324833007809999799e+03 2.304221923829999923e+03 2.300301513670000077e+03 2.302554931640000177e+03 2.302921875000000000e+03 2.303507080079999923e+03 2.304322753909999847e+03 2.301817382809999799e+03 2.299568603520000124e+03 2.297827636720000100e+03 2.297031738279999900e+03 2.294270019529999900e+03 2.289981689449999976e+03 2.285904785159999847e+03 2.280497070309999799e+03 2.274539794920000077e+03 2.270371093750000000e+03 2.264451171879999947e+03 2.256541748050000024e+03 2.244636474609999823e+03 2.236452880859999823e+03 2.227479980470000100e+03 2.219484375000000000e+03 2.248467773440000201e+03 nan nan nan nan nan nan nan nan nan nan 2.239506347659999847e+03 2.185857177729999876e+03 2.175559326170000077e+03 2.185751953129999947e+03 2.207999511720000100e+03 nan nan nan nan nan nan nan nan 1.864100219729999935e+03 1.838725219729999935e+03 1.846617797849999988e+03 1.837204223629999888e+03 1.843499389650000012e+03 1.843354980470000100e+03 1.864138427730000103e+03 1.873167358400000012e+03 nan nan nan nan nan nan nan nan nan nan 1.771360107420000077e+03 1.760403930660000015e+03 1.759792846679999911e+03 1.766251342770000065e+03 1.753090698239999938e+03 1.752888671879999947e+03 1.754384887700000036e+03 nan nan nan nan nan nan 1.633753906250000000e+03 1.627871215820000089e+03 1.639684814449999976e+03 1.651137695310000026e+03 1.657008056639999950e+03 1.663193969729999935e+03 1.667244140629999947e+03 1.668760375979999935e+03 1.668998901370000112e+03 1.669353515629999947e+03 1.668087158199999976e+03 1.667421264650000012e+03 1.665659545900000012e+03 1.663418212889999950e+03 1.662547363279999900e+03 1.660754638670000077e+03 1.658926879879999888e+03 1.658685058589999926e+03 1.659021972660000074e+03 1.657172607420000077e+03 1.654206054689999974e+03 1.650798461910000015e+03 1.645858032229999935e+03 1.642577514650000012e+03 1.637634521480000103e+03 1.634154541019999897e+03 1.628978149410000015e+03 1.624352783199999976e+03 1.620726684570000089e+03 1.616039672849999988e+03 1.610299072269999897e+03 1.601825439449999976e+03 1.593526000979999935e+03 1.587857299799999964e+03 1.581848999020000065e+03 1.580531616210000038e+03 1.579022216800000024e+03 1.577296142579999923e+03 1.580526123050000024e+03 1.579792114260000062e+03 1.579053100589999985e+03 1.572674438479999935e+03 1.566619873050000024e+03 1.561373046879999947e+03 1.557477050779999900e+03 1.556313110349999988e+03 1.554350341800000024e+03 1.551973754879999888e+03 1.548805908199999976e+03 1.546263183589999926e+03 1.542980102539999962e+03 1.539865356450000036e+03 1.537960815429999911e+03 1.532490844729999935e+03 1.525531616210000038e+03 1.520029785160000074e+03 1.509397216800000024e+03 nan nan nan nan nan nan nan nan nan nan nan nan nan nan nan nan nan nan nan nan nan nan nan nan nan nan nan nan nan nan nan nan nan 1.200820800779999900e+03 1.204081176760000062e+03 1.202810180660000015e+03 1.201055053710000038e+03 1.201632080079999923e+03
nan nan nan nan nan nan nan nan nan nan nan nan nan 2.648329345699999976e+03 2.648840576170000077e+03 2.645974365229999876e+03 2.642938720699999976e+03 2.638579833979999876e+03 2.634751708979999876e+03 2.629729248050000024e+03 2.623966552729999876e+03 2.619075683590000153e+03 2.614856933590000153e+03 2.612053710940000201e+03 2.609130371090000153e+03 2.607202880859999823e+03 2.605231933590000153e+03 2.603332031250000000e+03 2.600414794920000077e+03 2.596150634770000124e+03 2.592751953129999947e+03 2.591317871090000153e+03 2.588216308590000153e+03 2.585150634770000124e+03 2.580951660159999847e+03 2.576133300779999900e+03 2.571112060550000024e+03 2.566804687500000000e+03 2.563163085940000201e+03 2.559267089840000153e+03 2.555578613279999900e+03 2.551897949220000100e+03 2.546326171879999947e+03 2.542161865229999876e+03 2.537590087890000177e+03 2.531971435550000024e+03 2.526818359379999947e+03 2.522112792970000100e+03 2.517387207029999900e+03 2.515160400390000177e+03 2.511735839840000153e+03 2.507080566409999847e+03 2.502102539059999799e+03 2.497895751949999976e+03 2.495598876949999976e+03 2.494415039059999799e+03 2.494584228520000124e+03 2.491765625000000000e+03 2.489280517579999923e+03 2.483763183590000153e+03 2.476033203129999947e+03 2.473633544920000077e+03 2.473236083979999876e+03 2.471331054690000201e+03 2.469503417970000100e+03 2.463425537109999823e+03 2.459572753909999847e+03 2.457742919920000077e+03 2.448789550779999900e+03 2.448524414059999799e+03 2.448304199220000100e+03 2.444156494140000177e+03 2.443592773440000201e+03 2.451839355470000100e+03 2.469704833979999876e+03 2.477297363279999900e+03 2.480983398440000201e+03 2.481266357420000077e+03 2.488136230470000100e+03 2.555497802729999876e+03 2.537471435550000024e+03 2.400565673829999923e+03 2.321435302729999876e+03 2.300201904300000024e+03 2.296575439449999976e+03 2.295472900390000177e+03 2.296745849609999823e+03 2.298744628909999847e+03 2.299512695309999799e+03 2.296888671879999947e+03 2.293869628909999847e+03 2.292556884770000124e+03 2.291024414059999799e+03 2.287202392579999923e+03 2.282703125000000000e+03 2.275060058590000153e+03 2.268163818359999823e+03 2.262793945309999799e+03 2.258128417970000100e+03 2.251200439449999976e+03 2.239770263670000077e+03 2.230707275390000177e+03 2.222725585940000201e+03 2.219989013670000077e+03 2.216976318359999823e+03 2.223008300779999900e+03 nan nan nan nan nan nan nan nan nan 2.195001708979999876e+03 2.160059326170000077e+03 2.157601318359999823e+03 2.181056640629999947e+03 2.218826904300000024e+03 nan nan nan nan nan nan nan 1.847039916989999938e+03 1.876765747070000089e+03 1.865533203129999947e+03 1.846256347660000074e+03 1.850786621089999926e+03 1.852621459960000038e+03 1.854025634769999897e+03 1.853871826170000077e+03 1.850142578129999947e+03 1.869692993160000015e+03 nan nan nan nan nan nan nan nan 1.764836181639999950e+03 1.756944091800000024e+03 1.766881103519999897e+03 1.769369873050000024e+03 1.765030761720000100e+03 1.765754516599999988e+03 1.765661621089999926e+03 1.761789062500000000e+03 1.754785522460000038e+03 1.750805419920000077e+03 1.742333251949999976e+03 1.739044921879999947e+03 1.741341674799999964e+03 1.711215942379999888e+03 1.660034057620000112e+03 1.657463867189999974e+03 1.654323974610000050e+03 1.657828125000000000e+03 1.662413574220000100e+03 1.668102294920000077e+03 1.671637817379999888e+03 1.671541503910000074e+03 1.672691894529999900e+03 1.672961059570000089e+03 1.673469360349999988e+03 1.670679565429999911e+03 1.668074462889999950e+03 1.664610351560000026e+03 1.664938232420000077e+03 1.663969604489999938e+03 1.663205078129999947e+03 1.663071899410000015e+03 1.660256958010000062e+03 1.657435302730000103e+03 1.655481079099999988e+03 1.650919189449999976e+03 1.646756713870000112e+03 1.640832153320000089e+03 1.633541259769999897e+03 1.629161621089999926e+03 1.624359008789999962e+03 1.623238647460000038e+03 1.621485961910000015e+03 1.617665283199999976e+03 1.612871948239999938e+03 1.606721557620000112e+03 1.599709960939999974e+03 1.591989868160000015e+03 1.585112060550000024e+03 1.580978759769999897e+03 1.578568237299999964e+03 1.578686401370000112e+03 1.579265625000000000e+03 1.576508666989999938e+03 1.572869995120000112e+03 1.570183471679999911e+03 1.569842895510000062e+03 1.564446777339999926e+03 1.559578247070000089e+03 1.555524902339999926e+03 1.552096557620000112e+03 1.548780151370000112e+03 1.547872924799999964e+03 1.544768920900000012e+03 1.542813964839999926e+03 1.541008056639999950e+03 1.537439941410000074e+03 1.534787597660000074e+03 1.529633056639999950e+03 1.523221191410000074e+03 1.518127441410000074e+03 1.504726318360000050e+03 1.489202392579999923e+03 nan nan nan nan nan nan nan nan nan nan nan nan nan nan nan nan nan nan nan nan nan nan nan nan nan nan nan nan nan 1.176963134769999897e+03 1.193523803710000038e+03 1.210631103519999897e+03 1.209514648439999974e+03 1.207375000000000000e+03 1.205807006839999985e+03 1.205549682620000112e+03
nan nan nan nan nan nan nan nan nan nan nan nan nan 2.651361816409999847e+03 2.650756591800000024e+03 2.648570556640000177e+03 2.643896484379999947e+03 2.639417968750000000e+03 2.636397216800000024e+03 2.630071777340000153e+03 2.625233154300000024e+03 2.620948974609999823e+03 2.613936523440000201e+03 2.609899169920000077e+03 2.607524658199999976e+03 2.605994384770000124e+03 2.604069091800000024e+03 2.601888916020000124e+03 2.598897460940000201e+03 2.594815917970000100e+03 2.591643066409999847e+03 2.590370361329999923e+03 2.588297607420000077e+03 2.584570068359999823e+03 2.580788574220000100e+03 2.576409912109999823e+03 2.572638916020000124e+03 2.568330566409999847e+03 2.563126220699999976e+03 2.558382324220000100e+03 2.552611083979999876e+03 2.547904296879999947e+03 2.544214355470000100e+03 2.540592285159999847e+03 2.537151855470000100e+03 2.532567382809999799e+03 2.528014404300000024e+03 2.522567871090000153e+03 2.519376464840000153e+03 2.516002197270000124e+03 2.513019042970000100e+03 2.507598144529999900e+03 2.501964355470000100e+03 2.497970947270000124e+03 2.497096679690000201e+03 2.497876464840000153e+03 2.497517089840000153e+03 2.497871093750000000e+03 2.493972656250000000e+03 2.487497558590000153e+03 2.479282714840000153e+03 2.475876953129999947e+03 2.477429199220000100e+03 2.479468750000000000e+03 2.476782714840000153e+03 2.474043701170000077e+03 2.474157958979999876e+03 2.483706542970000100e+03 2.520101562500000000e+03 2.549959228520000124e+03 2.516963623050000024e+03 2.549882812500000000e+03 2.458570312500000000e+03 2.462684082029999900e+03 2.478732177729999876e+03 2.485216064449999976e+03 2.487871826170000077e+03 2.486307617190000201e+03 2.490510742190000201e+03 2.534511474609999823e+03 nan 2.435154296879999947e+03 2.367380371090000153e+03 2.316406982420000077e+03 2.300773925779999900e+03 2.295901123050000024e+03 2.293890136720000100e+03 2.294780273440000201e+03 2.295972656250000000e+03 2.291750000000000000e+03 2.290171630859999823e+03 2.289619628909999847e+03 2.285772949220000100e+03 2.281544189449999976e+03 2.277959228520000124e+03 2.271957275390000177e+03 2.264531250000000000e+03 2.254891357420000077e+03 2.247905273440000201e+03 2.242271728520000124e+03 2.233132568359999823e+03 2.223350585940000201e+03 2.217531005859999823e+03 2.212702148440000201e+03 2.206809326170000077e+03 2.196989257809999799e+03 2.197665771479999876e+03 nan nan nan nan nan nan nan nan 2.153892333979999876e+03 2.143453125000000000e+03 2.138094238279999900e+03 2.156836669920000077e+03 nan nan nan nan nan nan nan nan 1.868268798829999923e+03 1.867235839839999926e+03 1.856762939449999976e+03 1.861463745120000112e+03 1.860380737299999964e+03 1.861977905270000065e+03 1.862568481450000036e+03 1.861872436520000065e+03 1.860266845699999976e+03 1.857192260739999938e+03 1.857864013670000077e+03 1.854062744139999950e+03 1.848727539060000026e+03 1.840639160160000074e+03 1.843781250000000000e+03 1.822529907229999935e+03 1.808755249020000065e+03 1.780477050779999900e+03 1.759849365230000103e+03 1.760525634769999897e+03 1.766227172849999988e+03 1.767106811520000065e+03 1.767667846679999911e+03 1.768294189449999976e+03 1.767318237299999964e+03 1.764708374020000065e+03 1.758821899410000015e+03 1.751764892579999923e+03 1.748955444339999985e+03 1.739339599610000050e+03 1.731136596679999911e+03 1.721865112299999964e+03 1.695888916019999897e+03 1.677190917970000100e+03 1.667650268549999964e+03 1.666094726560000026e+03 1.668454711910000015e+03 1.672312622070000089e+03 1.674678588870000112e+03 1.675415771480000103e+03 1.676432128910000074e+03 1.675756713870000112e+03 1.674806152339999926e+03 1.672150024410000015e+03 1.672115234379999947e+03 1.670936035160000074e+03 1.670434570310000026e+03 1.667305664060000026e+03 1.666171142579999923e+03 1.662037231450000036e+03 1.658839721679999911e+03 1.655070068360000050e+03 1.651797851560000026e+03 1.647723144529999900e+03 1.642746826170000077e+03 1.637837280270000065e+03 1.635978881839999985e+03 1.630131469729999935e+03 1.624931152339999926e+03 1.621599365230000103e+03 1.617532226560000026e+03 1.619635498050000024e+03 1.617252563479999935e+03 1.613875976560000026e+03 1.607805664060000026e+03 1.600982666019999897e+03 1.597260009769999897e+03 1.593037231450000036e+03 1.588271484379999947e+03 1.577930786129999888e+03 1.572923217770000065e+03 1.570016845699999976e+03 1.569164672849999988e+03 1.569410766599999988e+03 1.564937744139999950e+03 1.560601196289999962e+03 1.558170410160000074e+03 1.556253051760000062e+03 1.551897460939999974e+03 1.548164916989999938e+03 1.545129394529999900e+03 1.542913452150000012e+03 1.541828491210000038e+03 1.539069458010000062e+03 1.537825073239999938e+03 1.533496337889999950e+03 1.531115600589999985e+03 1.526261474610000050e+03 1.519433227539999962e+03 1.513742675779999900e+03 1.501576416019999897e+03 1.485972900389999950e+03 nan nan nan nan nan nan nan nan nan nan nan nan nan nan nan nan nan nan nan nan nan nan nan nan nan nan nan nan nan 1.191058593750000000e+03 1.210029541019999897e+03 1.213717529300000024e+03 1.210232788089999985e+03 1.208285034179999911e+03 1.213229370120000112e+03
nan nan nan nan nan nan nan nan nan nan nan nan 2.657104492190000201e+03 2.656582031250000000e+03 2.654497070309999799e+03 2.653264648440000201e+03 2.647479492190000201e+03 2.641266357420000077e+03 2.635748535159999847e+03 2.630062011720000100e+03 2.627291259770000124e+03 2.621799072270000124e+03 2.614454589840000153e+03 2.610196777340000153e+03 2.606127685550000024e+03 2.603544921879999947e+03 2.601214355470000100e+03 2.597914062500000000e+03 2.594450195309999799e+03 2.590613037109999823e+03 2.588430419920000077e+03 2.589057617190000201e+03 2.586847167970000100e+03 2.585483642579999923e+03 2.582158447270000124e+03 2.579214599609999823e+03 2.574810546879999947e+03 2.569717285159999847e+03 2.562831054690000201e+03 2.556822998050000024e+03 2.551744140629999947e+03 2.547318115229999876e+03 2.543472656250000000e+03 2.541532470699999976e+03 2.537480224609999823e+03 2.532734130859999823e+03 2.527584472659999847e+03 2.523955322270000124e+03 2.520511962890000177e+03 2.517511718750000000e+03 2.512903320309999799e+03 2.508229248050000024e+03 2.504065429690000201e+03 2.500582519529999900e+03 2.500129150390000177e+03 2.500904052729999876e+03 2.503174560550000024e+03 2.502094238279999900e+03 2.497624511720000100e+03 2.490640136720000100e+03 2.483924072270000124e+03 2.476841796879999947e+03 2.481223388670000077e+03 2.483220458979999876e+03 2.484979248050000024e+03 2.495400634770000124e+03 2.497595703129999947e+03 2.524314208979999876e+03 2.665557373050000024e+03 2.709470214840000153e+03 nan nan 2.504857910159999847e+03 2.480330078129999947e+03 2.484952392579999923e+03 2.490738037109999823e+03 2.493767333979999876e+03 2.493263427729999876e+03 2.494772705079999923e+03 nan 2.441323486329999923e+03 2.398520751949999976e+03 2.364033447270000124e+03 2.338388427729999876e+03 2.314407226559999799e+03 2.305654296879999947e+03 2.298123291020000124e+03 2.297032958979999876e+03 2.298757812500000000e+03 2.294377197270000124e+03 2.288002685550000024e+03 2.282967773440000201e+03 2.281565185550000024e+03 2.277215087890000177e+03 2.272066650390000177e+03 2.268649169920000077e+03 2.262604736329999923e+03 2.250350097659999847e+03 2.238362060550000024e+03 2.227095214840000153e+03 2.220435791020000124e+03 2.214583251949999976e+03 2.208577148440000201e+03 2.206171875000000000e+03 2.200095214840000153e+03 2.197086181640000177e+03 2.192430664059999799e+03 2.186816162109999823e+03 2.234820556640000177e+03 nan nan nan nan nan nan 2.152483398440000201e+03 2.124876220699999976e+03 2.131747802729999876e+03 nan nan nan nan 1.933238891599999988e+03 1.913370605470000100e+03 1.914811035160000074e+03 1.912686523439999974e+03 nan 1.877315429689999974e+03 1.869475585939999974e+03 1.870407348629999888e+03 1.868775146480000103e+03 1.864760742189999974e+03 1.865133056639999950e+03 1.867530883789999962e+03 1.867233642579999923e+03 1.861860107420000077e+03 1.859926635739999938e+03 1.862155151370000112e+03 1.859763549799999964e+03 1.849453979489999938e+03 1.847322998050000024e+03 1.843591064449999976e+03 1.832129516599999988e+03 1.806125000000000000e+03 1.778578491210000038e+03 1.760161376949999976e+03 1.759449096679999911e+03 1.763395629879999888e+03 1.764871337889999950e+03 1.766424194339999985e+03 1.768430541989999938e+03 1.764881835939999974e+03 1.761731201170000077e+03 1.757930541989999938e+03 1.754707397460000038e+03 1.751392700200000036e+03 1.744145629879999888e+03 1.737114501949999976e+03 1.731406860349999988e+03 1.712597900389999950e+03 1.691510742189999974e+03 1.677739013670000077e+03 1.673592041019999897e+03 1.671877075200000036e+03 1.675311645510000062e+03 1.677552368160000015e+03 1.678128173829999923e+03 1.678376586910000015e+03 1.679112426760000062e+03 1.679487792970000100e+03 1.678892944339999985e+03 1.677752807620000112e+03 1.674451538089999985e+03 1.671595336910000015e+03 1.667144775389999950e+03 1.663752929689999974e+03 1.659654296879999947e+03 1.654422363279999900e+03 1.650894775389999950e+03 1.648812866210000038e+03 1.645145751949999976e+03 1.645367431639999950e+03 1.641616699220000100e+03 1.634739257810000026e+03 1.630401733400000012e+03 1.635282592770000065e+03 1.633351440429999911e+03 1.615985717770000065e+03 1.614672607420000077e+03 1.614328247070000089e+03 1.610916748050000024e+03 1.606717285160000074e+03 1.601222656250000000e+03 1.594982543950000036e+03 1.589821655270000065e+03 1.585054443360000050e+03 1.580765380860000050e+03 1.577079345699999976e+03 1.583070312500000000e+03 1.574716064449999976e+03 1.560144409179999911e+03 1.557869018549999964e+03 1.557255859379999947e+03 1.556505981450000036e+03 1.552471801760000062e+03 1.550531127929999911e+03 1.550243652339999926e+03 1.544842529300000024e+03 1.540977172849999988e+03 1.538488037110000050e+03 1.539015747070000089e+03 1.536384765629999947e+03 1.533289672849999988e+03 1.528314941410000074e+03 1.524184448239999938e+03 1.521779541019999897e+03 1.516639282229999935e+03 1.509786132810000026e+03 1.500436523439999974e+03 nan nan nan nan nan nan nan nan nan nan nan nan nan nan nan nan nan nan nan nan nan nan nan nan nan nan nan nan nan 1.210878417970000100e+03 1.224490722660000074e+03 1.223593505860000050e+03 1.220402465820000089e+03 1.212807983400000012e+03 1.218959960939999974e+03
nan nan nan nan nan nan nan nan nan nan nan 2.661434326170000077e+03 2.660321533199999976e+03 2.659456542970000100e+03 2.657928955079999923e+03 2.657374511720000100e+03 2.654071777340000153e+03 2.651447265629999947e+03 2.633774414059999799e+03 2.633054687500000000e+03 2.626677001949999976e+03 2.620949462890000177e+03 2.617489746090000153e+03 2.611446777340000153e+03 2.605738769529999900e+03 2.602774414059999799e+03 2.600711914059999799e+03 2.596963134770000124e+03 2.591688232420000077e+03 2.588099853520000124e+03 2.587982421879999947e+03 2.587223632809999799e+03 2.588260986329999923e+03 2.587476806640000177e+03 2.585260986329999923e+03 2.582746093750000000e+03 2.577344726559999799e+03 2.570703613279999900e+03 2.563262939449999976e+03 2.557461425779999900e+03 2.553784179690000201e+03 2.548688476559999799e+03 2.545029541020000124e+03 2.540668945309999799e+03 2.538216308590000153e+03 2.533779296879999947e+03 2.530302734379999947e+03 2.525903808590000153e+03 2.521930419920000077e+03 2.518125976559999799e+03 2.514590087890000177e+03 2.512403076170000077e+03 2.506981445309999799e+03 2.502302001949999976e+03 2.502769287109999823e+03 2.504647460940000201e+03 2.507943359379999947e+03 2.507911376949999976e+03 2.502603515629999947e+03 2.496591552729999876e+03 2.490603271479999876e+03 2.491326416020000124e+03 2.486922119140000177e+03 2.488999755859999823e+03 2.493191894529999900e+03 2.508602783199999976e+03 2.514385009770000124e+03 2.532653808590000153e+03 nan nan 2.609339843750000000e+03 2.559512207029999900e+03 2.519683105470000100e+03 2.501623291020000124e+03 2.494478271479999876e+03 2.496086669920000077e+03 2.499780517579999923e+03 2.503057861329999923e+03 2.506283691409999847e+03 2.553827148440000201e+03 2.468811523440000201e+03 2.413541748050000024e+03 2.396934326170000077e+03 2.403635986329999923e+03 2.318708251949999976e+03 2.309884277340000153e+03 2.303442382809999799e+03 2.304319335940000201e+03 2.304506103520000124e+03 2.298803466800000024e+03 2.288170166020000124e+03 2.280954833979999876e+03 2.279408935550000024e+03 2.275371337890000177e+03 2.271205810550000024e+03 2.264638183590000153e+03 2.254673828129999947e+03 2.240804687500000000e+03 2.229143798829999923e+03 2.216617675779999900e+03 2.209942382809999799e+03 2.204396728520000124e+03 2.203221923829999923e+03 2.199775634770000124e+03 2.195950195309999799e+03 2.191385498050000024e+03 2.183789550779999900e+03 2.176696533199999976e+03 2.157803466800000024e+03 2.153197998050000024e+03 nan nan nan nan nan 2.137953125000000000e+03 2.098181396479999876e+03 2.102194580079999923e+03 nan nan nan 1.927941284179999911e+03 1.919616943360000050e+03 1.909943725589999985e+03 1.907653686520000065e+03 1.904560668950000036e+03 1.900272705079999923e+03 1.890854858400000012e+03 1.885251220699999976e+03 1.875472412110000050e+03 1.868827270510000062e+03 1.866933959960000038e+03 1.867208862299999964e+03 1.868168701170000077e+03 1.869384277339999926e+03 1.866286132810000026e+03 1.864637084960000038e+03 1.865347656250000000e+03 1.863452392579999923e+03 1.857918579099999988e+03 1.850617797849999988e+03 1.843129516599999988e+03 1.828158569339999985e+03 1.803355834960000038e+03 1.777790283199999976e+03 1.767038330079999923e+03 1.768020385739999938e+03 1.769640502929999911e+03 1.772086791989999938e+03 1.770738403320000089e+03 1.769814697269999897e+03 1.768027465820000089e+03 1.763259277339999926e+03 1.758981567379999888e+03 1.753485717770000065e+03 1.750071777339999926e+03 1.743978271480000103e+03 1.741153198239999938e+03 1.736427246089999926e+03 1.724083129879999888e+03 1.704847656250000000e+03 1.691170043950000036e+03 1.682685546879999947e+03 1.679026000979999935e+03 1.676803222660000074e+03 1.677005859379999947e+03 1.679025878910000074e+03 1.680111694339999985e+03 1.683440917970000100e+03 1.683946655270000065e+03 1.682202636720000100e+03 1.679047119139999950e+03 1.673502685550000024e+03 1.669128784179999911e+03 1.665045166019999897e+03 1.661000366210000038e+03 1.654958374020000065e+03 1.653399291989999938e+03 1.649754882810000026e+03 1.651114257810000026e+03 1.646080688479999935e+03 1.641139038089999985e+03 1.649362182620000112e+03 1.650426025389999950e+03 1.627530639650000012e+03 1.627118652339999926e+03 1.624749877929999911e+03 1.620590454099999988e+03 1.617885009769999897e+03 1.615861816410000074e+03 1.613309814449999976e+03 1.609840209960000038e+03 1.605331909179999911e+03 1.598697753910000074e+03 1.593491699220000100e+03 1.587827148439999974e+03 1.582338989260000062e+03 1.578957519529999900e+03 1.573827026370000112e+03 1.568160644529999900e+03 1.571429443360000050e+03 1.570107788089999985e+03 1.553552978519999897e+03 1.547896240230000103e+03 1.551350952150000012e+03 1.549883911129999888e+03 1.545799804689999974e+03 1.545995605470000100e+03 1.542083007810000026e+03 1.537785278320000089e+03 1.536349121089999926e+03 1.534599365230000103e+03 1.533421142579999923e+03 1.526214111329999923e+03 1.520793334960000038e+03 1.519850585939999974e+03 1.517768920900000012e+03 1.513801269529999900e+03 1.507406005860000050e+03 1.494186157229999935e+03 1.480928588870000112e+03 nan nan nan nan nan nan nan nan nan nan nan nan nan nan nan nan nan nan nan nan nan nan nan nan nan nan nan 1.236535766599999988e+03 1.237743530270000065e+03 1.231611328129999947e+03 1.230190307620000112e+03 1.228338500979999935e+03 1.229099121089999926e+03
nan nan nan nan nan nan nan nan nan nan nan 2.661818847659999847e+03 2.662323242190000201e+03 2.663233154300000024e+03 2.662003906250000000e+03 2.661596191409999847e+03 2.661370361329999923e+03 2.670982910159999847e+03 2.680875488279999900e+03 2.656062255859999823e+03 2.629131591800000024e+03 2.620918701170000077e+03 2.618310546879999947e+03 2.613094970699999976e+03 2.607644531250000000e+03 2.604923339840000153e+03 2.602352294920000077e+03 2.597797607420000077e+03 2.591877929690000201e+03 2.588356933590000153e+03 2.586729003909999847e+03 2.589041015629999947e+03 2.589901855470000100e+03 2.588568359379999947e+03 2.587084228520000124e+03 2.582476806640000177e+03 2.577505615229999876e+03 2.572647216800000024e+03 2.567702392579999923e+03 2.561303466800000024e+03 2.557467285159999847e+03 2.553100585940000201e+03 2.547473632809999799e+03 2.541591064449999976e+03 2.539227050779999900e+03 2.535351806640000177e+03 2.531474609379999947e+03 2.528769775390000177e+03 2.525012451170000077e+03 2.520529541020000124e+03 2.519452636720000100e+03 2.518413085940000201e+03 2.512353027340000153e+03 2.506558105470000100e+03 2.508098876949999976e+03 2.511041503909999847e+03 2.512677246090000153e+03 2.514371582029999900e+03 2.512932617190000201e+03 2.508284912109999823e+03 2.504947021479999876e+03 2.515589111329999923e+03 2.516815673829999923e+03 2.499704101559999799e+03 2.504464843750000000e+03 2.518526123050000024e+03 2.527700927729999876e+03 2.534683349609999823e+03 2.566040283199999976e+03 2.617023193359999823e+03 2.559672607420000077e+03 2.545104492190000201e+03 2.527332031250000000e+03 2.514121826170000077e+03 2.505280273440000201e+03 2.504594238279999900e+03 2.505878906250000000e+03 2.509895996090000153e+03 2.515334228520000124e+03 2.541926025390000177e+03 2.602339599609999823e+03 2.511064941409999847e+03 nan 2.383420166020000124e+03 2.343448486329999923e+03 2.322820800779999900e+03 2.306454589840000153e+03 2.305332275390000177e+03 2.306286132809999799e+03 2.302230468750000000e+03 2.289424560550000024e+03 2.275435791020000124e+03 2.275049316409999847e+03 2.280643554690000201e+03 2.276975585940000201e+03 2.263463623050000024e+03 2.249958496090000153e+03 2.231305419920000077e+03 2.216930175779999900e+03 2.210620361329999923e+03 2.203975097659999847e+03 2.197982910159999847e+03 2.196451416020000124e+03 2.194062500000000000e+03 2.192134277340000153e+03 2.186349609379999947e+03 2.176532714840000153e+03 2.166667480470000100e+03 2.149661621090000153e+03 2.138291992190000201e+03 2.101547119140000177e+03 2.094496337890000177e+03 nan nan nan 2.018320312500000000e+03 2.053307128909999847e+03 nan nan nan 1.945730957029999900e+03 1.927350830079999923e+03 1.921856933589999926e+03 1.914401367189999974e+03 1.908490112299999964e+03 1.906134887700000036e+03 1.905044677730000103e+03 1.899410278320000089e+03 1.891866333010000062e+03 1.882314453129999947e+03 1.875907226560000026e+03 1.872665771480000103e+03 1.872241943360000050e+03 1.872177368160000015e+03 1.873156616210000038e+03 1.871607421879999947e+03 1.869642700200000036e+03 1.868333374020000065e+03 1.866802490230000103e+03 1.859782104489999938e+03 1.853320922849999988e+03 1.841943725589999985e+03 1.828512817379999888e+03 1.803638305660000015e+03 1.783932373050000024e+03 1.773019409179999911e+03 1.769961181639999950e+03 1.770346313479999935e+03 1.771240722660000074e+03 1.773236206049999964e+03 1.773514282229999935e+03 1.771359252929999911e+03 1.767261108400000012e+03 1.761549194339999985e+03 1.756415161129999888e+03 1.750817504879999888e+03 1.747042846679999911e+03 1.741334594729999935e+03 1.736292114260000062e+03 1.724726928710000038e+03 1.711342163089999985e+03 1.701371948239999938e+03 1.691868652339999926e+03 1.684950805660000015e+03 1.680632324220000100e+03 1.680678710939999974e+03 1.682918823239999938e+03 1.685063842770000065e+03 1.684797607420000077e+03 1.681917358400000012e+03 1.679307373050000024e+03 1.674988647460000038e+03 1.670859008789999962e+03 1.664423095699999976e+03 1.662649169920000077e+03 1.659876098629999888e+03 1.656870239260000062e+03 1.657055053710000038e+03 1.650858642579999923e+03 1.646055419920000077e+03 1.660039184570000089e+03 1.641030029300000024e+03 1.639136108400000012e+03 1.638662353519999897e+03 1.635759033199999976e+03 1.628860351560000026e+03 1.624623046879999947e+03 1.621845947269999897e+03 1.617638793950000036e+03 1.614826904300000024e+03 1.610736083980000103e+03 1.608202514650000012e+03 1.603670776370000112e+03 1.598873535160000074e+03 1.593294555660000015e+03 1.586874267579999923e+03 1.580881591800000024e+03 1.578095458980000103e+03 1.574600708010000062e+03 1.568708374020000065e+03 1.563316284179999911e+03 1.557188598629999888e+03 1.556693603519999897e+03 1.561043579099999988e+03 1.545239135739999938e+03 1.541171752929999911e+03 1.545855224610000050e+03 1.544456787110000050e+03 1.540200317379999888e+03 1.539633178710000038e+03 1.536882934570000089e+03 1.534432373050000024e+03 1.530365722660000074e+03 1.525997924799999964e+03 1.520575195310000026e+03 1.518630249020000065e+03 1.518258789060000026e+03 1.514619628910000074e+03 1.511346923829999923e+03 1.505316284179999911e+03 1.488964111329999923e+03 1.477951904300000024e+03 nan nan nan nan nan nan nan nan nan nan nan nan nan nan nan nan nan nan nan nan nan nan nan nan nan 1.273266845699999976e+03 1.243798461910000015e+03 1.246558593750000000e+03 1.243164062500000000e+03 1.244815429689999974e+03 1.247198364260000062e+03 1.237787475589999985e+03
nan nan nan nan nan nan nan nan nan nan 2.681916259770000124e+03 2.671775878909999847e+03 2.668360351559999799e+03 2.670337890629999947e+03 2.670012451170000077e+03 2.670525878909999847e+03 2.672196044920000077e+03 2.690918457029999900e+03 nan 2.658198486329999923e+03 2.633940917970000100e+03 2.624264404300000024e+03 2.622002441409999847e+03 2.614653564449999976e+03 2.609099121090000153e+03 2.607146484379999947e+03 2.606404052729999876e+03 2.602477539059999799e+03 2.595499755859999823e+03 2.589322021479999876e+03 2.587255859379999947e+03 2.587167236329999923e+03 2.588038085940000201e+03 2.588025146479999876e+03 2.585920410159999847e+03 2.582959228520000124e+03 2.580512207029999900e+03 2.576466552729999876e+03 2.569912353520000124e+03 2.563868896479999876e+03 2.561482421879999947e+03 2.557857910159999847e+03 2.551372070309999799e+03 2.545921386720000100e+03 2.539897949220000100e+03 2.536365234379999947e+03 2.533572265629999947e+03 2.531177490229999876e+03 2.527524414059999799e+03 2.524329101559999799e+03 2.524467285159999847e+03 2.522766113279999900e+03 2.517477294920000077e+03 2.511568603520000124e+03 2.512892333979999876e+03 2.515856689449999976e+03 2.515922363279999900e+03 2.519304443359999823e+03 2.521748046879999947e+03 2.523681152340000153e+03 2.524438964840000153e+03 2.530308593750000000e+03 2.549865966800000024e+03 2.516475097659999847e+03 2.519899414059999799e+03 2.526884765629999947e+03 2.533824707029999900e+03 2.538909912109999823e+03 2.575789794920000077e+03 2.582490478520000124e+03 2.553006347659999847e+03 2.545256835940000201e+03 2.534651855470000100e+03 2.521257812500000000e+03 2.518912353520000124e+03 2.514777343750000000e+03 2.512199218750000000e+03 2.516422119140000177e+03 2.524935546879999947e+03 2.537585205079999923e+03 nan 2.499420166020000124e+03 2.422314941409999847e+03 2.387197021479999876e+03 2.358322998050000024e+03 2.328712890629999947e+03 2.315452636720000100e+03 2.315115722659999847e+03 2.310160644529999900e+03 2.306802490229999876e+03 2.299886230470000100e+03 2.278619384770000124e+03 2.272484619140000177e+03 2.273904296879999947e+03 2.272069091800000024e+03 2.266229003909999847e+03 2.251401123050000024e+03 2.227829101559999799e+03 2.210165527340000153e+03 2.201307861329999923e+03 2.196156982420000077e+03 2.194533691409999847e+03 2.190587158199999976e+03 2.188695800779999900e+03 2.185865722659999847e+03 2.181432128909999847e+03 2.174068115229999876e+03 2.162171630859999823e+03 2.148862060550000024e+03 2.132004394529999900e+03 2.108661865229999876e+03 2.102267089840000153e+03 2.091952880859999823e+03 2.074876220699999976e+03 2.046406494139999950e+03 2.009727172849999988e+03 2.012009155270000065e+03 1.989151855470000100e+03 1.969395263670000077e+03 1.964833862299999964e+03 1.956542846679999911e+03 1.942218261720000100e+03 1.927137451170000077e+03 1.916224609379999947e+03 1.912819702150000012e+03 1.910509399410000015e+03 1.907926879879999888e+03 1.904652465820000089e+03 1.898390014650000012e+03 1.890425048829999923e+03 1.881630981450000036e+03 1.877821411129999888e+03 1.875159667970000100e+03 1.874314453129999947e+03 1.875298828129999947e+03 1.874670654300000024e+03 1.873849975589999985e+03 1.872862915039999962e+03 1.868913818360000050e+03 1.863669555660000015e+03 1.852567504879999888e+03 1.841473266599999988e+03 1.825284057620000112e+03 1.805366577150000012e+03 1.789707519529999900e+03 1.782053466800000024e+03 1.774755737299999964e+03 1.772932006839999985e+03 1.773081909179999911e+03 1.774958740230000103e+03 1.774471801760000062e+03 1.771972900389999950e+03 1.768502685550000024e+03 1.763388793950000036e+03 1.757044067379999888e+03 1.751777954099999988e+03 1.746369506839999985e+03 1.740761840820000089e+03 1.733391723629999888e+03 1.725213867189999974e+03 1.715577026370000112e+03 1.707661621089999926e+03 1.699366455079999923e+03 1.692947387700000036e+03 1.686741455079999923e+03 1.683667846679999911e+03 1.683308959960000038e+03 1.680778076170000077e+03 1.678639892579999923e+03 1.675185180660000015e+03 1.672920776370000112e+03 1.668312500000000000e+03 1.664362915039999962e+03 1.664496337889999950e+03 1.663060424799999964e+03 1.662927490230000103e+03 1.655274780270000065e+03 1.650757202150000012e+03 1.659192260739999938e+03 1.647399780270000065e+03 1.645425415039999962e+03 1.644263427730000103e+03 1.641689208980000103e+03 1.637089355470000100e+03 1.636338256839999985e+03 1.633170043950000036e+03 1.629306518549999964e+03 1.623837402339999926e+03 1.616986328129999947e+03 1.611745727539999962e+03 1.606693237299999964e+03 1.604278808589999926e+03 1.600440429689999974e+03 1.592866455079999923e+03 1.585822509769999897e+03 1.580969970699999976e+03 1.577970825200000036e+03 1.574669921879999947e+03 1.569458251949999976e+03 1.568375000000000000e+03 1.563154541019999897e+03 1.557886596679999911e+03 1.555683349610000050e+03 1.548689697269999897e+03 1.550946411129999888e+03 1.556325073239999938e+03 1.536534057620000112e+03 1.537378417970000100e+03 1.539929565429999911e+03 1.537546630860000050e+03 1.535670166019999897e+03 1.534173095699999976e+03 1.528390136720000100e+03 1.524679443360000050e+03 1.520716552730000103e+03 1.517779052730000103e+03 1.516074096679999911e+03 1.516808593750000000e+03 1.514505371089999926e+03 1.510440917970000100e+03 1.501423706049999964e+03 1.489838500979999935e+03 1.481638671879999947e+03 1.467857543950000036e+03 nan nan nan nan nan nan nan nan nan nan nan nan nan nan nan nan nan nan nan nan nan nan nan 1.256102783199999976e+03 1.254831054689999974e+03 1.256983398439999974e+03 1.258172851560000026e+03 1.258670776370000112e+03 1.259026245120000112e+03 1.251124023439999974e+03
nan nan nan nan nan nan nan nan nan 2.695851806640000177e+03 2.695144287109999823e+03 2.683195312500000000e+03 2.676260986329999923e+03 2.677827392579999923e+03 2.676287841800000024e+03 2.679066406250000000e+03 2.686935058590000153e+03 nan 2.684227050779999900e+03 2.647281982420000077e+03 2.636062255859999823e+03 2.633110107420000077e+03 2.625475585940000201e+03 2.618348876949999976e+03 2.613633789059999799e+03 2.612579101559999799e+03 2.612351806640000177e+03 2.609580810550000024e+03 2.603243652340000153e+03 2.594161376949999976e+03 2.588530761720000100e+03 2.586770019529999900e+03 2.587589355470000100e+03 2.588805664059999799e+03 2.588202148440000201e+03 2.587459472659999847e+03 2.584794677729999876e+03 2.578762939449999976e+03 2.572561767579999923e+03 2.567376464840000153e+03 2.564043701170000077e+03 2.564492919920000077e+03 2.558024169920000077e+03 2.545713623050000024e+03 2.538809082029999900e+03 2.537282226559999799e+03 2.533263427729999876e+03 2.531514404300000024e+03 2.528325439449999976e+03 2.527918212890000177e+03 2.530531494140000177e+03 2.528611083979999876e+03 2.524473388670000077e+03 2.518581542970000100e+03 2.516555419920000077e+03 2.518705810550000024e+03 2.518387695309999799e+03 2.524276611329999923e+03 2.532090576170000077e+03 2.538168212890000177e+03 2.543844970699999976e+03 2.551000000000000000e+03 2.570386718750000000e+03 2.542557373050000024e+03 2.537624511720000100e+03 2.538913574220000100e+03 2.542095947270000124e+03 2.548367187500000000e+03 nan 2.623171386720000100e+03 2.556460205079999923e+03 2.554284912109999823e+03 2.549105468750000000e+03 2.536172851559999799e+03 2.532592529300000024e+03 2.527379638670000077e+03 2.520280517579999923e+03 2.524252685550000024e+03 2.531794189449999976e+03 2.539557373050000024e+03 nan 2.501394042970000100e+03 2.445841064449999976e+03 2.401855224609999823e+03 2.384644042970000100e+03 2.360554687500000000e+03 2.323379638670000077e+03 2.323795166020000124e+03 2.318808105470000100e+03 2.321114257809999799e+03 2.329508544920000077e+03 2.297490478520000124e+03 2.279352294920000077e+03 2.274513671879999947e+03 2.269075439449999976e+03 2.262506347659999847e+03 2.243761230470000100e+03 2.227052734379999947e+03 2.214905029300000024e+03 2.198905029300000024e+03 2.192799560550000024e+03 2.188215332029999900e+03 2.187920166020000124e+03 2.185756835940000201e+03 2.181646484379999947e+03 2.176582031250000000e+03 2.169664550779999900e+03 2.159242431640000177e+03 2.147000244140000177e+03 2.131774658199999976e+03 2.118561767579999923e+03 2.108913085940000201e+03 2.096285156250000000e+03 2.080377197270000124e+03 2.059926513670000077e+03 2.014302001949999976e+03 1.992767456049999964e+03 1.978847045900000012e+03 1.972063720699999976e+03 1.967885009769999897e+03 1.962327026370000112e+03 1.950078491210000038e+03 1.937276611329999923e+03 1.922245483400000012e+03 1.916124755860000050e+03 1.912825439449999976e+03 1.910542846679999911e+03 1.907312255860000050e+03 1.903485351560000026e+03 1.897114379879999888e+03 1.889826660160000074e+03 1.883061767579999923e+03 1.879264648439999974e+03 1.877577758789999962e+03 1.877056518549999964e+03 1.877138671879999947e+03 1.875587036129999888e+03 1.873639038089999985e+03 1.870346679689999974e+03 1.862387084960000038e+03 1.852049438479999935e+03 1.835994750979999935e+03 1.821109741210000038e+03 1.808338378910000074e+03 1.799499633789999962e+03 1.791426391599999988e+03 1.784812744139999950e+03 1.780081542970000100e+03 1.777073852539999962e+03 1.774181518549999964e+03 1.771366455079999923e+03 1.767368896480000103e+03 1.765216186520000065e+03 1.760071777339999926e+03 1.752843383789999962e+03 1.747487182620000112e+03 1.742867919920000077e+03 1.737286254879999888e+03 1.730950927730000103e+03 1.724665527339999926e+03 1.719146606450000036e+03 1.711921142579999923e+03 1.706518432620000112e+03 1.697251464839999926e+03 1.689399291989999938e+03 1.683288574220000100e+03 1.679234008789999962e+03 1.675318847660000074e+03 1.672803466800000024e+03 1.670275024410000015e+03 1.667306030270000065e+03 1.666219482420000077e+03 1.667268676760000062e+03 1.663774291989999938e+03 1.659948120120000112e+03 1.657300903320000089e+03 1.657893432620000112e+03 1.652804077150000012e+03 1.650564575200000036e+03 1.648774414060000026e+03 1.646246704099999988e+03 1.643150268549999964e+03 1.643141845699999976e+03 1.643934936520000065e+03 1.641638427730000103e+03 1.637232543950000036e+03 1.631806274410000015e+03 1.628009887700000036e+03 1.623091918950000036e+03 1.617588500979999935e+03 1.612877197269999897e+03 1.608973999020000065e+03 1.601098632810000026e+03 1.590145019529999900e+03 1.580032348629999888e+03 1.575049560550000024e+03 1.569531372070000089e+03 1.565930908199999976e+03 1.564949707029999900e+03 1.562498291019999897e+03 1.559001708980000103e+03 1.558788818360000050e+03 1.555133666989999938e+03 1.553246459960000038e+03 1.548023437500000000e+03 1.542890991210000038e+03 1.551285400389999950e+03 1.538649169920000077e+03 1.529148559570000089e+03 1.534285034179999911e+03 1.535844360349999988e+03 1.531466674799999964e+03 1.528042846679999911e+03 1.522737548829999923e+03 1.520032348629999888e+03 1.519335815429999911e+03 1.517324096679999911e+03 1.515792724610000050e+03 1.515298095699999976e+03 1.511285644529999900e+03 1.505216796879999947e+03 1.499516357420000077e+03 1.491102905270000065e+03 1.476247924799999964e+03 nan nan nan nan nan nan nan nan nan nan nan nan nan nan nan nan nan nan nan nan nan nan 1.271512084960000038e+03 1.271688476560000026e+03 1.278255371089999926e+03 1.275710571289999962e+03 1.276610717770000065e+03 1.273612915039999962e+03 1.266924560550000024e+03 1.262153564449999976e+03
nan nan nan nan nan nan nan nan 2.700507080079999923e+03 2.706222167970000100e+03 2.704987792970000100e+03 2.693764404300000024e+03 2.684813476559999799e+03 2.687777343750000000e+03 2.683164794920000077e+03 2.684578369140000177e+03 2.698883056640000177e+03 nan 2.671892578129999947e+03 2.652426269529999900e+03 2.640067626949999976e+03 2.633958007809999799e+03 2.624194335940000201e+03 2.625565673829999923e+03 2.622907714840000153e+03 2.618772949220000100e+03 2.615244873050000024e+03 2.614567871090000153e+03 2.610684570309999799e+03 2.603145263670000077e+03 2.594642089840000153e+03 2.592958984379999947e+03 2.594744628909999847e+03 2.597316162109999823e+03 2.597147460940000201e+03 2.595108154300000024e+03 2.590449707029999900e+03 2.584141113279999900e+03 2.578146728520000124e+03 2.567130371090000153e+03 2.562925292970000100e+03 2.569487304690000201e+03 2.562586425779999900e+03 2.551185791020000124e+03 2.551709716800000024e+03 2.545424560550000024e+03 2.536720703129999947e+03 2.531215087890000177e+03 2.530376220699999976e+03 2.534238037109999823e+03 2.538571533199999976e+03 2.538991943359999823e+03 2.536741699220000100e+03 2.529633300779999900e+03 2.518423583979999876e+03 2.520120117190000201e+03 2.522427734379999947e+03 2.531060302729999876e+03 2.539430664059999799e+03 2.547344970699999976e+03 2.554249023440000201e+03 2.561236572270000124e+03 2.570164794920000077e+03 2.569467285159999847e+03 2.555645019529999900e+03 2.558993896479999876e+03 2.562461669920000077e+03 2.566367431640000177e+03 2.596171630859999823e+03 2.590682128909999847e+03 2.568333007809999799e+03 2.566003173829999923e+03 2.554458740229999876e+03 2.544302246090000153e+03 2.540454101559999799e+03 2.536664062500000000e+03 2.530654052729999876e+03 2.532402832029999900e+03 2.536627929690000201e+03 2.547265625000000000e+03 2.583765136720000100e+03 2.656875488279999900e+03 2.627502685550000024e+03 2.581206787109999823e+03 2.564379394529999900e+03 2.433935546879999947e+03 2.359034179690000201e+03 2.347511962890000177e+03 2.341642089840000153e+03 2.344054199220000100e+03 2.352133300779999900e+03 2.367153564449999976e+03 2.319166992190000201e+03 2.273029785159999847e+03 2.263898681640000177e+03 2.254967285159999847e+03 2.239550537109999823e+03 2.229352539059999799e+03 2.216009765629999947e+03 2.206426513670000077e+03 2.194982421879999947e+03 2.187611816409999847e+03 2.182911865229999876e+03 2.181384277340000153e+03 2.177921630859999823e+03 2.174259033199999976e+03 2.168113037109999823e+03 2.158413085940000201e+03 2.146384765629999947e+03 2.134213378909999847e+03 2.122885986329999923e+03 2.112857177729999876e+03 2.098929931640000177e+03 2.085833984379999947e+03 2.067157958979999876e+03 2.036088256839999985e+03 1.997825073239999938e+03 1.980800537110000050e+03 1.974972656250000000e+03 1.970943725589999985e+03 1.963983520510000062e+03 1.953581420900000012e+03 1.940932495120000112e+03 1.929340454099999988e+03 1.922208984379999947e+03 1.918149658199999976e+03 1.913669189449999976e+03 1.909304565429999911e+03 1.904374877929999911e+03 1.898825195310000026e+03 1.892364257810000026e+03 1.885438476560000026e+03 1.880424682620000112e+03 1.879021972660000074e+03 1.875588012700000036e+03 1.873570068360000050e+03 1.873062133789999962e+03 1.870404541019999897e+03 1.866214477539999962e+03 1.859321044920000077e+03 1.847928588870000112e+03 1.835375244139999950e+03 1.821700805660000015e+03 1.813534423829999923e+03 1.806113281250000000e+03 1.799069335939999974e+03 1.794496093750000000e+03 1.789697143549999964e+03 1.784548828129999947e+03 1.779715820310000026e+03 1.770914550779999900e+03 1.763487426760000062e+03 1.756772827150000012e+03 1.750863769529999900e+03 1.746217895510000062e+03 1.741082763670000077e+03 1.735790893549999964e+03 1.730556152339999926e+03 1.724831420900000012e+03 1.721331298829999923e+03 1.718170288089999985e+03 1.713349731450000036e+03 1.708088256839999985e+03 1.701759643549999964e+03 1.695652099610000050e+03 1.687515869139999950e+03 1.681794921879999947e+03 1.676428466800000024e+03 1.671736816410000074e+03 1.668939819339999985e+03 1.668558471679999911e+03 1.665464355470000100e+03 1.662930786129999888e+03 1.659180419920000077e+03 1.660456054689999974e+03 1.657164184570000089e+03 1.656126464839999926e+03 1.654913452150000012e+03 1.651126342770000065e+03 1.647128906250000000e+03 1.648611450200000036e+03 1.651822753910000074e+03 1.649392944339999985e+03 1.648954101560000026e+03 1.645198242189999974e+03 1.643542358400000012e+03 1.639443603519999897e+03 1.632027465820000089e+03 1.624277343750000000e+03 1.616963623050000024e+03 1.613158325200000036e+03 1.609700195310000026e+03 1.598753540039999962e+03 1.582652587889999950e+03 1.573005859379999947e+03 1.565312622070000089e+03 1.559698242189999974e+03 1.558139038089999985e+03 1.558068725589999985e+03 1.559128051760000062e+03 1.560335449220000100e+03 1.556451904300000024e+03 1.558023437500000000e+03 1.554013305660000015e+03 1.551867065429999911e+03 1.547782104489999938e+03 1.539297363279999900e+03 1.538909057620000112e+03 1.551095458980000103e+03 1.524343383789999962e+03 1.527723999020000065e+03 1.529000732420000077e+03 1.525577148439999974e+03 1.522381469729999935e+03 1.519444091800000024e+03 1.518046997070000089e+03 1.516514770510000062e+03 1.515857177730000103e+03 1.513716186520000065e+03 1.511832275389999950e+03 1.509484130860000050e+03 1.503913085939999974e+03 1.498881469729999935e+03 1.484787841800000024e+03 1.463747680660000015e+03 nan nan nan nan nan nan nan nan nan nan nan nan nan nan nan nan nan nan nan nan 1.274891113279999900e+03 1.291355712889999950e+03 1.288968017579999923e+03 1.288590087889999950e+03 1.285831665039999962e+03 1.282748291019999897e+03 1.281257568360000050e+03 1.273104614260000062e+03 1.265884155270000065e+03
nan nan nan nan nan nan nan 2.706895751949999976e+03 2.707438720699999976e+03 2.711878662109999823e+03 2.710413818359999823e+03 2.697513183590000153e+03 2.687592285159999847e+03 2.692384033199999976e+03 2.688003417970000100e+03 2.696055419920000077e+03 2.699831542970000100e+03 2.691656250000000000e+03 2.672281250000000000e+03 2.664811767579999923e+03 2.655056640629999947e+03 2.634590332029999900e+03 2.625172119140000177e+03 2.630946777340000153e+03 2.629071533199999976e+03 2.625348144529999900e+03 2.620474121090000153e+03 2.617958496090000153e+03 2.614927978520000124e+03 2.607958251949999976e+03 2.601683593750000000e+03 2.600523437500000000e+03 2.603140380859999823e+03 2.603947753909999847e+03 2.602951416020000124e+03 2.599503906250000000e+03 2.595488769529999900e+03 2.591875488279999900e+03 2.586981445309999799e+03 2.574392333979999876e+03 2.565404541020000124e+03 2.568870605470000100e+03 2.576956542970000100e+03 2.587794189449999976e+03 2.574551025390000177e+03 2.556596679690000201e+03 2.543127685550000024e+03 2.537076171879999947e+03 2.538916992190000201e+03 2.543776367190000201e+03 2.547493408199999976e+03 2.547838378909999847e+03 2.548240234379999947e+03 2.545834228520000124e+03 2.523845214840000153e+03 2.523116455079999923e+03 2.532669677729999876e+03 2.541087158199999976e+03 2.547754394529999900e+03 2.553306396479999876e+03 2.562867675779999900e+03 2.570314941409999847e+03 2.576275146479999876e+03 2.582245605470000100e+03 2.574243652340000153e+03 2.568958740229999876e+03 2.575910888670000077e+03 2.579063720699999976e+03 2.597188232420000077e+03 2.597076171879999947e+03 2.576232177729999876e+03 2.567200683590000153e+03 2.555436035159999847e+03 2.546594238279999900e+03 2.546303222659999847e+03 2.545167724609999823e+03 2.542753417970000100e+03 2.545162109379999947e+03 2.547286621090000153e+03 2.552884277340000153e+03 2.576183837890000177e+03 nan nan nan nan 2.450871582029999900e+03 2.408684814449999976e+03 2.377692626949999976e+03 2.362544921879999947e+03 2.362387939449999976e+03 2.363833251949999976e+03 2.380596679690000201e+03 2.425427978520000124e+03 2.384979736329999923e+03 2.330627929690000201e+03 2.284310058590000153e+03 2.272877685550000024e+03 2.221666259770000124e+03 2.216921142579999923e+03 2.212615234379999947e+03 2.202159912109999823e+03 2.191266113279999900e+03 2.184362304690000201e+03 2.180379150390000177e+03 2.176218017579999923e+03 2.174872558590000153e+03 2.167650146479999876e+03 2.157251708979999876e+03 2.147614013670000077e+03 2.134583496090000153e+03 2.127483886720000100e+03 2.115875244140000177e+03 2.102668212890000177e+03 2.086121582029999900e+03 2.070488037109999823e+03 2.048292724609999823e+03 2.025264770510000062e+03 1.999218750000000000e+03 1.983371459960000038e+03 1.974118896480000103e+03 1.964688232420000077e+03 1.954966918950000036e+03 1.943322753910000074e+03 1.931608276370000112e+03 1.926946289060000026e+03 1.920050170900000012e+03 1.913907470699999976e+03 1.907456909179999911e+03 1.901656494139999950e+03 1.894789306639999950e+03 1.888826782229999935e+03 1.882871093750000000e+03 1.879357299799999964e+03 1.875215087889999950e+03 1.872668945310000026e+03 1.870325683589999926e+03 1.868568481450000036e+03 1.864133911129999888e+03 1.860762207029999900e+03 1.852909179689999974e+03 1.841394287110000050e+03 1.830212524410000015e+03 1.823104614260000062e+03 1.816785888670000077e+03 1.812833007810000026e+03 1.808280029300000024e+03 1.804173095699999976e+03 1.799943481450000036e+03 1.794691772460000038e+03 1.786986206049999964e+03 1.776255493160000015e+03 1.763739013670000077e+03 1.752184570310000026e+03 1.740948730470000100e+03 1.733689331049999964e+03 1.730932739260000062e+03 1.727556274410000015e+03 1.724191650389999950e+03 1.720583374020000065e+03 1.719413940429999911e+03 1.718263671879999947e+03 1.716664062500000000e+03 1.714264160160000074e+03 1.708290039060000026e+03 1.701866088870000112e+03 1.692297485349999988e+03 1.685353759769999897e+03 1.678703735349999988e+03 1.674359497070000089e+03 1.669948608400000012e+03 1.667983886720000100e+03 1.671901977539999962e+03 1.661296142579999923e+03 1.659494873050000024e+03 1.659007812500000000e+03 1.657942016599999988e+03 1.655542236329999923e+03 1.652832763670000077e+03 1.651434204099999988e+03 1.654408813479999935e+03 1.653420654300000024e+03 1.653930664060000026e+03 1.652906738279999900e+03 1.653375000000000000e+03 1.652071289060000026e+03 1.647773681639999950e+03 1.640820312500000000e+03 1.632956787110000050e+03 1.624221801760000062e+03 1.624402954099999988e+03 1.620767089839999926e+03 1.617845214839999926e+03 1.600057250979999935e+03 1.572265014650000012e+03 1.560827270510000062e+03 1.555641967770000065e+03 1.552084472660000074e+03 1.551249145510000062e+03 1.553397583010000062e+03 1.555045410160000074e+03 1.557113769529999900e+03 1.558556640629999947e+03 1.556463623050000024e+03 1.556136474610000050e+03 1.550167236329999923e+03 1.547443115230000103e+03 1.543511962889999950e+03 1.536587524410000015e+03 1.529403686520000065e+03 1.543005859379999947e+03 1.522359619139999950e+03 1.520741943360000050e+03 1.523879272460000038e+03 1.520625122070000089e+03 1.518733886720000100e+03 1.517986816410000074e+03 1.516043334960000038e+03 1.513090698239999938e+03 1.513537597660000074e+03 1.510242187500000000e+03 1.508049926760000062e+03 1.506156860349999988e+03 1.499799072269999897e+03 1.492578857420000077e+03 1.478125488279999900e+03 1.459379516599999988e+03 nan nan nan nan nan nan nan nan nan nan nan nan nan nan nan nan nan nan 1.275340576170000077e+03 1.293064208980000103e+03 1.293360473629999888e+03 1.295712158199999976e+03 1.296224487299999964e+03 1.293731323239999938e+03 1.289131713870000112e+03 1.281256958010000062e+03 1.279757934570000089e+03 1.269936523439999974e+03
nan nan nan nan nan nan 2.731860595699999976e+03 2.723143310550000024e+03 2.720704833979999876e+03 2.719514892579999923e+03 2.715880859379999947e+03 2.699966064449999976e+03 2.687002929690000201e+03 2.693062744140000177e+03 2.688105957029999900e+03 2.699499755859999823e+03 2.707505859379999947e+03 2.684477539059999799e+03 2.680871093750000000e+03 2.676234130859999823e+03 2.665295166020000124e+03 2.643140380859999823e+03 2.629164550779999900e+03 2.627751708979999876e+03 2.628653320309999799e+03 2.627899414059999799e+03 2.626175537109999823e+03 2.622300048829999923e+03 2.617957519529999900e+03 2.611604003909999847e+03 2.607739257809999799e+03 2.608208740229999876e+03 2.608883056640000177e+03 2.608671875000000000e+03 2.606557373050000024e+03 2.601541503909999847e+03 2.600873779300000024e+03 2.599579101559999799e+03 2.599618896479999876e+03 2.601793212890000177e+03 2.601939697270000124e+03 2.595672119140000177e+03 2.598432373050000024e+03 2.608698730470000100e+03 2.577441894529999900e+03 2.564977783199999976e+03 2.552452392579999923e+03 2.545151123050000024e+03 2.546636230470000100e+03 2.551403076170000077e+03 2.554411132809999799e+03 2.556261718750000000e+03 2.558207275390000177e+03 2.559083251949999976e+03 2.549866943359999823e+03 2.536281494140000177e+03 2.545860595699999976e+03 2.552031494140000177e+03 2.553830810550000024e+03 2.557147705079999923e+03 2.565603759770000124e+03 2.575088134770000124e+03 2.581860839840000153e+03 2.590504394529999900e+03 2.587641113279999900e+03 2.585326171879999947e+03 2.586670166020000124e+03 2.590556640629999947e+03 2.603482421879999947e+03 2.616995849609999823e+03 2.608401611329999923e+03 2.611937500000000000e+03 2.564926025390000177e+03 2.553262695309999799e+03 2.553140136720000100e+03 2.553489257809999799e+03 2.552623291020000124e+03 2.557499755859999823e+03 2.560958251949999976e+03 2.564007080079999923e+03 2.587866943359999823e+03 nan 2.592515136720000100e+03 2.529093994140000177e+03 2.492782226559999799e+03 2.460756103520000124e+03 2.439464111329999923e+03 2.406771728520000124e+03 2.390614746090000153e+03 2.384488525390000177e+03 2.386687988279999900e+03 2.422055175779999900e+03 2.471263916020000124e+03 nan 2.352615722659999847e+03 2.315377197270000124e+03 2.354737548829999923e+03 nan 2.241503173829999923e+03 2.200976074220000100e+03 2.197029296879999947e+03 2.191411865229999876e+03 2.187609863279999900e+03 2.182577392579999923e+03 2.177197021479999876e+03 2.172751220699999976e+03 2.165928710940000201e+03 2.155438232420000077e+03 2.143152587890000177e+03 2.130870361329999923e+03 2.123401611329999923e+03 2.114140625000000000e+03 2.099211669920000077e+03 2.083467529300000024e+03 2.070531494140000177e+03 2.057048095699999976e+03 2.037504272460000038e+03 2.019681640629999947e+03 1.999569458010000062e+03 1.983147094729999935e+03 1.972399291989999938e+03 1.963054199220000100e+03 1.950397460939999974e+03 1.938874145510000062e+03 1.931091430660000015e+03 1.923786865230000103e+03 1.915747558589999926e+03 1.907319702150000012e+03 1.897373535160000074e+03 1.889874267579999923e+03 1.883989746089999926e+03 1.879683593750000000e+03 1.875869018549999964e+03 1.872986083980000103e+03 1.870490600589999985e+03 1.868057006839999985e+03 1.865267211910000015e+03 1.861494750979999935e+03 1.855918945310000026e+03 1.848916503910000074e+03 1.839504150389999950e+03 1.832762939449999976e+03 1.828343139650000012e+03 1.825504150389999950e+03 1.819987060550000024e+03 1.814136840820000089e+03 1.807179687500000000e+03 1.803053222660000074e+03 1.798682006839999985e+03 1.790766479489999938e+03 1.777634521480000103e+03 1.762326660160000074e+03 1.746974365230000103e+03 1.732944213870000112e+03 1.726498535160000074e+03 1.723844604489999938e+03 1.722420166019999897e+03 1.721388671879999947e+03 1.721508544920000077e+03 1.722970336910000015e+03 1.722698852539999962e+03 1.720039916989999938e+03 1.716226928710000038e+03 1.710422973629999888e+03 1.702542602539999962e+03 1.694746093750000000e+03 1.686811035160000074e+03 1.679752563479999935e+03 1.676357910160000074e+03 1.679599121089999926e+03 1.669846923829999923e+03 1.666894897460000038e+03 1.664554077150000012e+03 1.662263427730000103e+03 1.658207763670000077e+03 1.656395996089999926e+03 1.655733276370000112e+03 1.656520507810000026e+03 1.654435058589999926e+03 1.656186767579999923e+03 1.656512817379999888e+03 1.656975952150000012e+03 1.658162353519999897e+03 1.656374633789999962e+03 1.652953735349999988e+03 1.648542236329999923e+03 1.644207031250000000e+03 1.634618286129999888e+03 1.626932739260000062e+03 1.622216674799999964e+03 1.626516845699999976e+03 1.617033691410000074e+03 1.592759521480000103e+03 1.566013671879999947e+03 1.554476928710000038e+03 1.548210327150000012e+03 1.543000488279999900e+03 1.543753417970000100e+03 1.546897460939999974e+03 1.552131958010000062e+03 1.552956298829999923e+03 1.554692504879999888e+03 1.556279052730000103e+03 1.553450439449999976e+03 1.551070068360000050e+03 1.547119384769999897e+03 1.542618286129999888e+03 1.536190185550000024e+03 1.532841308589999926e+03 1.524974731450000036e+03 1.527554321289999962e+03 1.528190185550000024e+03 1.512718383789999962e+03 1.519818603519999897e+03 1.518142700200000036e+03 1.516418945310000026e+03 1.515156860349999988e+03 1.512438354489999938e+03 1.509768432620000112e+03 1.508387695310000026e+03 1.506554931639999950e+03 1.504603637700000036e+03 1.501778930660000015e+03 1.496237426760000062e+03 1.487957519529999900e+03 1.471552978519999897e+03 nan nan nan nan nan nan nan nan nan nan nan nan nan nan nan nan nan 1.268876953129999947e+03 1.290613525389999950e+03 1.297223632810000026e+03 1.300875610349999988e+03 1.299139648439999974e+03 1.298971557620000112e+03 1.295034545900000012e+03 1.290625244139999950e+03 1.284365234379999947e+03 1.282771972660000074e+03 1.273822021480000103e+03
nan nan nan nan 2.757490966800000024e+03 2.749335693359999823e+03 2.741729248050000024e+03 2.732981689449999976e+03 2.725879150390000177e+03 2.724885742190000201e+03 2.722593261720000100e+03 2.712903808590000153e+03 2.699124023440000201e+03 2.694297119140000177e+03 2.706396240229999876e+03 2.731453857420000077e+03 nan nan 2.686378173829999923e+03 2.669978027340000153e+03 2.655892333979999876e+03 2.647272460940000201e+03 2.636373046879999947e+03 2.630181152340000153e+03 2.628947509770000124e+03 2.629278320309999799e+03 2.629502929690000201e+03 2.626817626949999976e+03 2.620307373050000024e+03 2.615929931640000177e+03 2.613650634770000124e+03 2.613337158199999976e+03 2.612558349609999823e+03 2.611467529300000024e+03 2.609500244140000177e+03 2.605287597659999847e+03 2.605350830079999923e+03 2.609171630859999823e+03 2.614745605470000100e+03 2.627539550779999900e+03 2.641220458979999876e+03 2.649856689449999976e+03 2.632433105470000100e+03 2.604900878909999847e+03 2.580288330079999923e+03 2.573920898440000201e+03 2.562749267579999923e+03 2.556432617190000201e+03 2.556303955079999923e+03 2.556860107420000077e+03 2.558180175779999900e+03 2.562384033199999976e+03 2.566650878909999847e+03 2.571060791020000124e+03 2.575607421879999947e+03 2.577542480470000100e+03 2.557559082029999900e+03 2.561319580079999923e+03 2.558469970699999976e+03 2.560655273440000201e+03 2.568268310550000024e+03 2.578693847659999847e+03 2.586547607420000077e+03 2.592627197270000124e+03 2.596190673829999923e+03 2.594498291020000124e+03 2.596815185550000024e+03 2.601703613279999900e+03 2.610700683590000153e+03 2.621871826170000077e+03 2.633892333979999876e+03 2.633578369140000177e+03 2.576672119140000177e+03 2.563616210940000201e+03 2.559242187500000000e+03 2.558281738279999900e+03 2.561191650390000177e+03 2.567512939449999976e+03 2.572570068359999823e+03 2.576049560550000024e+03 2.590963623050000024e+03 2.616069335940000201e+03 2.563589111329999923e+03 2.520972656250000000e+03 2.492989746090000153e+03 2.468406250000000000e+03 2.450351806640000177e+03 2.428389648440000201e+03 2.404585205079999923e+03 2.403036865229999876e+03 2.402489746090000153e+03 2.433094970699999976e+03 nan 2.335298339840000153e+03 2.294911376949999976e+03 2.297258544920000077e+03 nan 2.228162353520000124e+03 2.218526123050000024e+03 2.207868652340000153e+03 2.192740234379999947e+03 2.185530761720000100e+03 2.180559082029999900e+03 2.176255615229999876e+03 2.173783447270000124e+03 2.168364257809999799e+03 2.159405517579999923e+03 2.149079589840000153e+03 2.138076660159999847e+03 2.122476806640000177e+03 2.111880126949999976e+03 2.100559570309999799e+03 2.086248046879999947e+03 2.069030029300000024e+03 2.060762939449999976e+03 2.052827148440000201e+03 2.040533203129999947e+03 2.025819458010000062e+03 2.010331298829999923e+03 1.991858276370000112e+03 1.980345825200000036e+03 1.970157226560000026e+03 1.958420410160000074e+03 1.944563842770000065e+03 1.934287475589999985e+03 1.926332641599999988e+03 1.918525878910000074e+03 1.909556884769999897e+03 1.900733032229999935e+03 1.890640869139999950e+03 1.883492065429999911e+03 1.877316162110000050e+03 1.874344726560000026e+03 1.871282104489999938e+03 1.870458496089999926e+03 1.869289672849999988e+03 1.867448242189999974e+03 1.864776611329999923e+03 1.860654418950000036e+03 1.854037963870000112e+03 1.845236694339999985e+03 1.839093383789999962e+03 1.836477905270000065e+03 1.831698120120000112e+03 1.822047363279999900e+03 1.811706909179999911e+03 1.803191406250000000e+03 1.798440307620000112e+03 1.795258178710000038e+03 1.791835449220000100e+03 1.780887329099999988e+03 1.760386108400000012e+03 1.739155639650000012e+03 1.726567749020000065e+03 1.719793457029999900e+03 1.719640502929999911e+03 1.719055419920000077e+03 1.719273315429999911e+03 1.720062988279999900e+03 1.721437377929999911e+03 1.721034423829999923e+03 1.718347290039999962e+03 1.714487426760000062e+03 1.708811523439999974e+03 1.701544555660000015e+03 1.694862915039999962e+03 1.690846923829999923e+03 1.689539550779999900e+03 1.678633911129999888e+03 1.677139282229999935e+03 1.674544677730000103e+03 1.671485351560000026e+03 1.666275878910000074e+03 1.662139160160000074e+03 1.661835327150000012e+03 1.659234252929999911e+03 1.657338867189999974e+03 1.657318603519999897e+03 1.657695800779999900e+03 1.658171020510000062e+03 1.658357421879999947e+03 1.659251098629999888e+03 1.659803833010000062e+03 1.656286743160000015e+03 1.654773925779999900e+03 1.654016235349999988e+03 1.653373535160000074e+03 1.642253784179999911e+03 1.630757202150000012e+03 1.622367431639999950e+03 1.615947143549999964e+03 1.612679443360000050e+03 1.579999755860000050e+03 1.551957153320000089e+03 1.548674316410000074e+03 1.548074829099999988e+03 1.538832519529999900e+03 1.537115112299999964e+03 1.545284179689999974e+03 1.549627685550000024e+03 1.550191284179999911e+03 1.550016723629999888e+03 1.550136596679999911e+03 1.551738281250000000e+03 1.548962036129999888e+03 1.544619262700000036e+03 1.541070068360000050e+03 1.535968383789999962e+03 1.528934326170000077e+03 1.525566162110000050e+03 1.519020629879999888e+03 1.517849853519999897e+03 1.527348876949999976e+03 1.509255249020000065e+03 1.515187255860000050e+03 1.515326171879999947e+03 1.512134887700000036e+03 1.512023681639999950e+03 1.509734375000000000e+03 1.506227783199999976e+03 1.505272216800000024e+03 1.503793090820000089e+03 1.501097778320000089e+03 1.496756225589999985e+03 1.492156005860000050e+03 1.477773071289999962e+03 1.458258056639999950e+03 nan nan nan nan nan nan nan nan nan nan nan nan nan nan nan nan 1.275555297849999988e+03 1.294047241210000038e+03 1.297015014650000012e+03 1.300903198239999938e+03 1.301442626949999976e+03 1.301247314449999976e+03 1.301150878910000074e+03 1.289609985349999988e+03 1.292208007810000026e+03 1.285531860349999988e+03 1.283081542970000100e+03
